-0.065507 4.980324 1.496956
0.152248 4.060649 0.033281
-0.019769 3.956504 -0.053248
-0.079290 4.088775 -0.153034
3.938504 3.907821 0.039862
-0.104907 -0.281139 -0.010280
3.983282 -0.007408 -0.077731
0.221080 5.053038 1.468840
4.146003 4.018843 -0.095273
5.015164 -0.254960 1.690940
-2.005216 -2.075610 1.504172
-2.025292 -1.970462 1.485281
0.067086 3.973555 -0.059740
-0.036832 -0.039713 0.098646
-0.088370 4.891988 1.331354
-1.961614 -1.956698 1.355647
4.141974 0.032797 -0.130253
0.051375 3.995579 0.075827
-0.105699 -7.354823 0.012770
-0.127039 4.901248 1.464562
0.065693 -0.092044 -0.059534
3.926727 4.004156 0.014821
4.943298 5.272606 1.443896
-9.066575 -5.626351 0.060027
3.969016 3.976751 -0.073266
-0.000608 4.994165 1.376508
4.128157 4.085841 -0.031845
0.041555 -0.130994 -0.134195
3.890139 3.915194 -0.064027
5.062610 5.014123 1.498968
3.942566 0.163066 0.031552
4.002289 3.872717 0.053617
9.315057 -5.163590 -0.003938
-1.975342 -1.848166 1.539734
-0.059047 4.109233 0.005836
3.981387 3.968087 0.092932
4.173937 0.064677 0.104439
4.154348 3.948104 -0.029927
5.087808 5.044600 1.509599
4.940612 4.941461 1.507222
4.017797 -0.006326 -0.087140
-0.163819 4.203971 -0.057291
5.187943 0.137553 1.463939
-0.022868 3.917721 0.017640
-0.301217 -0.010925 -0.204496
-2.077864 -1.989232 1.423012
-0.053243 3.919379 -0.043377
5.034851 0.074798 1.545446
-0.076250 -0.067392 -0.068343
0.023183 3.860881 0.005658
5.102423 -0.019982 1.401568
3.890684 0.087024 0.016298
0.015203 0.021782 -0.052186
4.047681 3.963321 0.019293
0.007974 -0.142563 0.048811
5.042644 4.958615 1.626338
3.997520 0.026571 0.119393
4.905000 4.988844 1.667462
0.134593 4.894067 1.331055
0.085084 4.100119 0.047339
3.938234 -0.017426 0.008228
0.116084 5.111885 1.371872
4.037520 3.992762 -0.075520
5.006043 0.050947 1.625449
-1.882205 -1.962098 1.356786
4.006205 0.144778 -0.134549
-0.122047 0.024563 -0.083618
5.074625 0.070424 1.557608
4.890771 5.034267 1.422041
5.057470 5.016163 1.600839
3.968826 0.011632 -0.019176
5.069343 0.023534 1.479989
0.086541 4.920342 1.435335
0.064419 0.090683 0.125299
3.830500 0.056288 0.030374
3.947723 -0.184380 0.175512
5.195783 4.819083 1.516172
-2.077667 -2.054053 1.309580
4.987955 0.003631 1.493888
3.999696 0.015026 0.035285
-0.002395 3.882636 0.007226
4.993917 -0.034623 1.623913
-0.197287 5.165791 1.400707
5.062606 5.032293 1.547015
0.007066 4.999895 1.454143
-1.944690 -1.941435 1.631292
-0.068963 4.927814 1.241135
3.982834 0.193564 0.009120
-0.143506 4.001808 0.022274
4.069571 4.108099 -0.021560
4.999154 -0.010387 1.566087
-0.143139 4.816711 1.735300
5.139995 0.054309 1.500163
4.865992 5.122174 1.479555
4.860269 4.983815 1.506438
0.060373 4.049134 0.088762
-2.077243 -1.994568 1.448030
-0.078698 3.908389 -0.097570
4.997465 0.141947 1.446934
-0.016977 3.927330 -0.100554
5.208099 0.051962 1.542136
4.163191 3.897672 0.193957
4.975218 4.840616 1.531610
-0.067312 0.104399 0.164342
-0.010316 -0.034912 0.034959
0.052343 0.078672 -0.017859
-0.226062 5.277849 1.481695
-0.008545 5.008105 1.721720
-0.191282 4.197984 -0.001816
4.037778 4.033047 0.046936
4.960293 5.066937 1.610698
-0.076569 -0.081282 -0.016726
5.008774 4.788978 1.703139
4.985747 -0.047010 1.542477
3.858216 -0.003046 -0.034401
4.184380 3.923003 -0.101499
4.906590 4.925762 1.494136
4.996310 4.928148 1.488174
-0.085361 -0.048524 -0.001885
3.949034 0.109354 0.105694
5.001273 -0.030813 1.493050
0.348609 0.256012 -0.062843
-0.191462 4.060814 -0.087462
5.136981 4.882165 1.462154
4.984345 5.024993 1.580983
4.112474 4.039978 -0.037188
4.003583 -0.097505 0.010914
-1.852712 -1.771198 1.530027
4.990333 -0.062039 1.435079
0.132648 4.169694 -0.062671
3.956473 0.002803 -0.059143
4.154748 -0.147879 -0.017144
-0.031390 5.053408 1.452032
-0.018883 4.220089 -0.007947
4.056076 4.047080 -0.088213
0.049329 4.002719 -0.124549
-0.022344 -0.049893 0.041239
3.916549 4.054545 -0.076285
0.048770 4.117658 -0.026412
-2.081015 -1.676599 1.600569
5.020878 4.955602 1.448255
3.965660 -0.082618 0.084601
5.128823 5.023837 1.469087
-0.044913 0.089127 -0.046250
-0.018588 -0.005219 -0.188285
4.994008 -0.217889 1.573791
-1.947861 -1.909118 1.355318
-0.020938 4.131014 -0.170802
3.999409 -0.152787 0.047155
3.964430 -0.011657 -0.018863
-0.020673 4.954944 1.550097
-0.138461 5.077445 1.561975
0.082825 5.127198 1.691930
4.044005 -0.071866 -0.133891
-0.150112 3.921820 0.080291
4.917708 0.173902 1.324309
0.015300 3.985257 0.206527
-1.827078 -1.866219 1.583738
4.013393 4.065767 -0.017414
-2.390891 -1.965099 1.763046
5.178324 4.975171 1.614009
0.141761 5.055831 1.539596
-0.158216 4.821052 1.391033
4.963151 5.107888 1.385073
-1.869114 -1.962432 1.538729
3.938918 4.039443 0.015656
-0.097226 4.841637 1.736979
5.082391 5.045117 1.446631
3.849259 4.030878 -0.072890
-2.087947 -2.093732 1.896946
0.129502 0.102072 -0.116086
-0.185005 4.150953 -0.051366
-0.109373 4.085934 -0.023238
4.116267 0.029167 -0.018469
5.055575 -0.082721 1.406826
0.093285 -0.152335 0.102494
4.010620 -0.027709 0.006243
5.041488 -0.054572 1.600652
5.089142 5.179371 1.555146
-1.891044 -1.929971 1.616780
0.021436 4.126354 -0.078249
-0.090903 0.052948 -0.091669
0.054590 4.139824 0.124234
-0.045152 4.888849 1.709299
5.016574 -0.015695 1.329497
0.118261 -0.011052 -0.095122
4.867582 -0.016320 1.668209
0.109829 3.985787 -0.054252
-0.110915 4.165746 0.201627
-2.060384 -2.018988 1.375826
4.976418 5.052649 1.492686
-0.044594 4.860807 1.540469
3.936148 3.909663 0.016825
4.184238 3.972598 -0.044029
1.453914 9.184524 -0.001301
0.001514 0.247125 0.117196
3.986451 0.136293 0.020542
3.968100 0.074556 -0.067388
0.159322 4.927190 1.523754
-1.983565 -2.171607 1.561638
4.021309 3.984889 -0.078552
0.121497 3.963592 0.095966
3.986776 3.917954 0.030673
-0.001232 -0.014697 0.127590
-0.195890 4.019267 -0.194069
-0.151945 0.055271 0.115245
5.041054 4.885834 1.312512
4.876734 4.923643 1.454993
-0.128879 5.108460 1.458451
4.990563 4.956244 1.531605
-5.441214 -2.433764 0.025777
-0.057051 -0.124405 0.101952
-0.135409 3.853409 -0.037325
0.023653 4.854824 1.470894
0.006661 0.137819 0.068577
4.957304 0.054916 1.502985
5.025996 5.128755 1.466225
4.120035 3.978336 0.062749
3.970891 -0.050559 -0.067140
-2.032672 -2.039236 1.392238
0.083172 5.035067 1.679406
-1.934271 -1.954023 1.439386
3.984282 0.083307 -0.255462
-2.084096 -1.988549 1.548027
-0.038996 5.001647 1.676222
-0.094947 -0.060553 0.189139
4.931194 5.175563 1.509176
4.873570 5.145234 1.522657
-2.101880 -2.127203 1.420082
0.069039 4.009193 0.007180
0.003876 4.063887 0.108681
4.967575 5.098875 1.440522
-0.003676 0.052935 0.007654
4.936724 4.934225 1.522628
4.932325 4.999299 1.394588
-1.982182 -1.961700 1.488158
4.865839 5.163593 1.592381
-0.054042 5.242853 1.430804
-0.108584 4.034165 0.002628
3.882140 0.112941 0.049609
0.063476 3.849559 0.167577
-0.142354 4.051653 0.017037
3.975296 4.081706 -0.008827
0.056147 4.133467 -0.179458
0.179025 4.840235 1.439987
4.116180 -0.073692 -0.006016
0.006527 0.173182 -0.012182
-0.086842 0.010500 -0.061126
-3.373279 0.059082 -0.047428
4.035187 -0.017282 -0.019820
5.040679 5.048188 1.660539
0.031746 4.964963 1.414662
3.900795 -0.066629 0.007699
3.957722 0.060734 0.044320
3.965831 0.060238 -0.031084
-1.989311 -1.891561 1.485104
5.157641 0.076416 1.475029
4.050924 0.239884 0.123915
3.836609 -0.079634 0.034528
0.061657 0.130089 0.246200
-2.040322 -1.849752 1.381747
4.889559 4.954840 1.592487
-1.881546 -1.825349 1.585995
4.013760 4.220312 0.024888
-6.667283 -2.999917 -0.016580
0.112397 3.969734 0.042681
3.960509 4.100872 0.015321
-5.208531 -6.947977 0.051480
4.017096 3.938377 0.099860
-0.126437 4.946712 1.428107
4.994366 -0.137915 1.460592
4.098633 3.914551 0.037005
4.976847 5.114209 1.452642
4.160030 -0.084185 0.024730
5.009106 0.142225 1.415413
3.956677 3.901486 0.024878
-0.080307 4.773927 1.676626
-0.069467 4.190483 -0.096785
0.175737 0.175813 -0.053502
5.006118 5.017154 1.528870
-0.064359 0.068980 0.052165
3.918968 -0.039348 -0.050858
0.135491 5.039733 1.548659
-0.099664 4.035251 0.026077
4.075984 4.067796 -0.034888
4.073323 0.038030 0.091549
-0.151235 -0.008700 0.104158
4.855680 0.083466 1.517825
5.069249 5.019312 1.455961
4.953970 5.190274 1.508578
4.089087 3.984222 0.012109
4.045191 3.945582 0.038474
-0.039286 -0.138911 0.077464
5.033549 -0.041503 1.539001
4.959337 0.025556 1.277536
3.846561 3.854999 -0.066160
4.135880 -0.002908 0.140581
-0.140091 5.046510 1.556939
0.069259 4.836360 1.520616
0.112874 3.888395 0.122695
4.971412 -0.188678 1.695276
0.137152 3.975290 -0.135008
4.853504 -0.096042 1.669679
-2.007068 -1.921376 1.434796
-0.075951 0.065276 -0.113980
5.060281 0.100270 1.486312
4.097310 4.049359 0.028713
4.926358 -0.088151 1.649098
5.106944 0.042086 1.484157
3.806880 0.178924 0.102482
0.195016 4.821788 1.356219
-0.042648 4.827850 1.512831
-2.140979 -2.080518 1.563154
-0.257310 0.000095 -0.142844
5.073948 4.958211 1.514043
5.018801 4.951897 1.507746
3.785001 -0.141025 0.026904
0.067682 0.061155 0.029481
-0.059109 3.769164 -0.057532
4.953188 0.069463 1.266185
4.994475 5.096607 1.527064
-1.903183 -1.933232 1.466585
0.000384 5.087859 1.303629
4.059319 0.037074 0.020675
-0.068238 0.122626 -0.213634
4.935732 0.052527 1.503372
0.159444 3.938671 -0.008035
-0.042860 3.915819 -0.112490
-0.095501 4.016578 -0.055894
0.102093 0.180693 0.017260
-0.108336 4.859300 1.578789
5.068847 4.869250 1.550515
4.030280 3.768124 -0.074970
4.159699 0.059552 -0.056500
3.936412 3.988148 -0.013660
0.118172 4.772760 1.530412
0.209071 4.817076 1.383285
0.096170 4.142664 0.146284
-0.019781 4.058618 0.106151
4.023352 4.135013 -0.124860
3.939619 4.047980 0.064834
-1.754358 -2.072069 1.471045
-0.027621 3.951372 0.155574
0.202610 -0.108982 -0.100429
4.911158 0.235342 1.556662
-2.086022 -2.028957 1.536403
5.203406 -0.065830 1.642820
3.948016 -0.129883 -0.011852
4.026968 -0.041410 0.085735
-0.159686 4.033925 -0.169062
-2.136946 -1.808041 1.560685
4.031908 0.169805 0.012403
-0.017191 4.001223 -0.016824
-1.927419 -2.004071 1.822260
0.084952 4.972609 1.398823
4.002443 -0.078971 -0.088738
0.107511 0.136185 -0.155896
4.052086 4.023572 -0.091194
5.024807 4.812970 1.519925
4.017542 4.005916 -0.060233
3.956117 4.048951 -0.010164
-2.175418 -2.164320 1.649114
0.058408 4.114436 -0.031458
3.898113 0.006916 -0.086957
-0.028231 3.954575 -0.069457
4.904513 0.137780 1.592670
-0.044525 4.141752 0.164872
4.966421 0.271844 1.407334
5.007733 0.095305 1.553399
-0.192473 4.995204 1.459867
5.136628 0.096034 1.546421
4.997034 4.909153 1.558503
5.006003 4.977254 1.525277
-2.006434 -1.820345 1.431144
0.109761 4.109868 0.207342
-2.027037 -1.726070 1.340713
0.260202 -0.010252 -0.000009
3.911734 4.006724 0.077605
-1.982777 -2.202683 1.593973
-1.858879 -2.314627 1.419059
0.041755 4.949195 1.526122
-0.087548 -0.020265 0.035292
0.132302 4.028269 -0.156358
-0.015204 0.115308 -0.070345
-0.023932 3.966714 -0.137425
0.145781 0.018335 -0.011601
-2.068269 -2.091114 1.704677
0.028810 0.054010 -0.188668
5.000093 -0.038805 1.323405
3.942602 -0.051956 0.092331
3.875894 4.006848 -0.026460
-0.144360 3.986683 0.183299
0.106087 4.004305 0.000061
-0.150596 -0.130604 -0.083367
4.020387 3.945728 -0.039361
5.125322 -0.222715 1.453855
4.725592 8.699407 0.024303
4.003774 -0.187876 0.001814
4.905203 -0.119504 1.595984
3.849653 -0.009031 -0.006636
0.122742 -0.197235 -0.045699
0.008203 5.084804 1.604273
3.935593 3.909978 0.123339
-1.908729 -2.109763 1.474018
-0.163281 -0.154126 0.040281
3.988973 3.923588 0.167126
3.985009 0.010752 0.025361
4.125318 -0.083502 0.057823
0.105568 -0.094272 0.089441
0.078765 5.058877 1.477670
5.056536 -0.003576 1.620064
4.856895 5.120517 1.541521
4.032464 3.922380 0.141749
4.044907 0.145438 -0.118215
0.054160 4.072633 0.088465
-1.821395 -1.823988 1.479938
-0.005151 3.862993 0.128795
-1.962860 -2.045591 1.494751
0.021779 0.087472 0.057198
-2.159316 -2.170982 1.601046
-2.187163 -2.035075 1.630198
0.023892 5.215777 1.516348
4.984481 5.090591 1.468920
-2.007693 -2.132226 1.595351
-0.006677 4.956771 1.380598
3.999264 0.037484 -0.010569
4.025002 0.004358 0.206920
-0.083918 -0.020183 0.042622
-8.809312 -2.626031 0.029980
-0.130741 -0.085949 0.200839
4.948521 0.170203 1.550878
-0.103099 4.165066 0.138851
0.032853 4.031892 0.106647
-0.084826 -0.065206 0.189467
5.063304 -0.149460 1.498154
5.056809 -0.029994 1.563551
-6.774622 8.498636 0.020799
5.117746 4.958232 1.519618
3.837492 -0.059535 -0.084175
0.188197 0.064349 -0.096099
3.903229 3.959134 0.248212
4.101369 -0.057997 0.079107
-0.058630 3.990541 0.112792
-2.025494 -1.974847 1.442306
4.003060 4.000066 -0.156855
5.201158 4.971978 1.553568
-0.100005 0.008744 0.019074
-0.112322 5.059085 1.445017
5.118406 0.011088 1.613456
4.046539 4.114882 -0.014957
-1.966276 -1.979504 1.546259
-0.157467 3.901853 0.025186
-0.084695 5.096993 1.596208
0.012927 -0.017935 0.018043
0.238933 3.947325 -0.062162
4.936670 5.091148 1.349718
4.077797 3.946849 -0.019367
0.070678 3.818348 0.094127
5.004569 4.897206 1.428452
3.407906 9.858323 -0.066465
3.881466 3.966063 0.063053
-0.125491 4.851227 1.539208
-1.998179 -2.016776 1.384514
4.122363 0.042602 0.054205
3.929564 -0.026665 -0.057143
4.101016 -0.002276 0.017280
-0.056795 4.995735 1.529130
5.045996 0.073149 1.456763
-2.042540 -1.997415 1.471671
5.114390 0.015867 1.441702
4.897293 5.037931 1.576240
4.047881 -0.086009 0.003767
0.037936 0.020140 0.131044
-0.018928 -0.123567 -0.130954
0.120800 3.937945 0.030565
5.131641 0.093528 1.499846
3.986731 4.065965 -0.013613
5.024940 5.016210 1.449875
3.964538 0.070462 -0.023557
0.030417 5.069336 1.646921
-1.948078 -2.032257 1.632017
-1.900698 -2.045805 1.548456
5.154938 5.065032 1.505338
-0.153689 3.922036 -0.069800
4.001427 3.976817 0.034469
4.026713 -0.144754 0.049658
-0.064294 3.840601 -0.003020
4.971945 -0.125700 1.560058
5.084318 5.023336 1.401394
0.138401 3.946370 -0.105944
-1.810029 -2.055754 1.382853
5.167440 0.190240 1.377057
3.980841 3.969296 -0.064560
-0.182354 4.920111 1.578575
0.053721 -0.067401 0.142486
5.010077 0.055314 1.625009
-0.044656 -0.149560 -0.061488
0.030831 4.063841 -0.048512
4.908474 -0.071942 1.761669
5.018447 4.966866 1.634195
-2.071580 -1.985049 1.423287
3.872548 0.000657 -0.023967
4.922377 4.748978 1.496596
5.107837 -0.177910 1.448746
0.032311 3.990968 -0.029143
3.909786 0.089167 0.021852
0.095299 -0.009344 -0.135957
0.080834 0.032537 -0.009574
-2.087493 -1.986294 1.378567
0.030324 -0.046402 0.210643
-0.073679 5.067696 1.566988
0.014834 5.150465 1.274472
4.903394 4.956402 1.566223
5.084992 4.935300 1.487376
0.042139 0.031493 0.008165
5.053154 -0.121230 1.528528
3.989471 3.861560 0.001606
5.047119 -0.181285 1.499162
4.860818 4.887133 1.442456
-2.029475 -1.858261 1.657385
5.345025 0.070907 1.388545
-0.154876 0.060138 -0.083132
3.996388 0.103751 -0.082655
-0.090911 3.987527 -0.022669
0.052814 3.903244 -0.079402
0.070819 4.003898 0.001706
-2.120815 -2.064240 1.494909
0.052914 5.172573 1.583492
4.919962 4.921537 1.427235
-0.197262 4.920195 1.472917
4.850712 -0.070947 1.446238
-1.897534 -1.957400 1.519863
4.981401 -0.002839 1.603772
0.154398 -0.073295 -0.017497
-1.958444 -2.136588 1.567382
5.086377 5.013306 1.555090
-0.151934 -0.069922 -0.098196
4.116180 0.018652 -0.030032
4.018348 -0.064270 -0.044386
-0.017415 5.056344 1.603462
4.943599 5.052954 1.588689
0.080077 3.943442 -0.170904
5.005601 4.920581 1.450205
-1.965420 -1.867986 1.468593
0.127493 0.191453 0.061126
-0.143605 4.916376 1.314044
4.949897 -0.050385 1.673579
-2.181652 -2.015848 1.512427
0.156735 -0.091680 0.133001
4.039070 4.003613 -0.006454
0.186260 3.899716 -0.069100
-0.048974 4.037655 -0.043847
-1.742535 -2.140172 1.716113
4.969907 0.016313 1.435729
3.020121 1.376609 0.009002
3.819911 -0.084857 0.139160
-0.036276 5.002764 1.551050
5.039231 -0.192879 1.656070
0.074271 -0.011330 0.038696
3.993184 4.062999 -0.028099
3.924333 4.051709 -0.026139
3.973674 0.045198 0.045313
0.097813 -0.147339 0.098231
-0.126409 5.089899 1.565784
3.976612 0.021793 0.100498
-0.006866 4.934038 1.570853
5.079792 4.946743 1.452820
0.167476 5.161828 1.511587
0.086694 3.961598 -0.124157
0.003354 0.007597 0.111472
5.001906 -0.035998 1.636127
4.017135 4.019897 0.068010
0.074113 5.113088 1.442938
4.969896 5.032776 1.446152
-0.094419 3.847057 -0.092980
3.853011 3.940078 0.069244
-0.118453 4.839557 1.704109
4.981722 0.099282 1.438148
0.240580 5.365068 1.565047
4.034243 -0.014366 0.027823
-2.019002 -2.074335 1.535346
-0.040578 4.012542 0.052823
4.164854 4.073576 0.056612
4.844795 4.998182 1.513323
-1.932973 -1.901198 1.527593
3.941243 0.015730 -0.014314
-0.073986 -0.048815 0.128998
4.083997 4.072699 -0.074917
-0.124259 5.034046 1.773097
-2.053603 -2.082963 1.648830
5.096620 4.938587 1.427389
-0.095522 -0.016073 0.064543
5.116412 4.921583 1.570152
-2.069914 -1.977523 1.689328
3.917122 0.092082 0.015836
-1.985579 -2.211944 1.527299
-0.137830 0.097157 -0.094971
5.036842 -0.209750 1.316841
-2.007144 -2.065928 1.345438
5.040509 -0.107281 1.603545
-0.065255 0.128679 -0.010737
0.127050 -0.047065 -0.139899
-0.103469 3.943226 -0.115013
-0.103969 3.997303 -0.041069
4.017912 0.119770 0.144781
-1.961870 -1.999143 1.463502
-0.137287 -0.006978 -0.051849
0.027110 3.959083 -0.037641
-0.025612 4.894646 1.484288
4.902639 -0.058248 1.579221
5.084074 4.959067 1.514529
5.049481 4.936779 1.553702
3.959001 0.009184 -0.050180
-0.240962 4.779047 1.431417
5.190868 4.879650 1.412082
3.869540 -0.011038 0.052461
0.049094 -0.081115 -0.040161
0.082307 4.935378 1.521292
4.097887 3.991236 0.008441
3.786047 -0.081825 0.012952
3.922200 3.803671 -0.105402
0.064823 4.072015 0.102355
3.984221 0.045721 0.019120
-0.079947 4.976497 1.586310
-1.908227 -1.980953 1.593271
5.016432 0.147914 1.490247
0.095642 0.039575 -0.188052
4.043696 4.110553 -0.151152
0.214314 5.145683 1.529509
4.176408 -0.027286 0.208766
5.036474 5.219117 1.434511
3.923912 4.144821 0.127584
-2.142669 -1.955876 1.492493
-2.013769 -2.080726 1.445556
-2.004815 -2.180031 1.695435
5.055882 4.992600 1.432245
-0.054402 5.013240 1.465582
4.859027 0.175376 1.370605
4.778242 -0.056183 1.377058
5.050410 0.119109 1.513399
3.921259 3.965191 -0.058144
-0.178895 5.211632 1.538550
-1.952151 -2.108828 1.603235
0.135920 4.801624 1.373939
0.188156 4.664039 1.529259
5.075054 5.000886 1.532560
5.067799 4.980310 1.414586
3.826458 0.003072 -0.070636
0.006350 0.108295 -0.005477
0.078899 4.016983 0.061875
0.023838 3.969831 0.024351
4.829454 4.937693 1.640751
3.983219 -0.024673 0.129628
3.880479 0.075651 -0.026108
5.028954 0.032885 1.465693
0.218465 -0.170361 0.053279
4.839475 -0.151816 1.647686
4.915114 0.019079 1.409352
3.923936 -0.068183 0.141165
-0.148034 -0.226452 -0.025579
4.807274 5.042630 1.524237
4.110608 3.947129 -0.046974
5.262126 -7.090501 0.019236
3.970757 0.069090 0.039725
4.055095 -0.092193 -0.029855
3.932250 3.947920 -0.034493
5.126495 5.091489 1.510654
-1.795561 -2.038117 1.614705
-0.174459 5.155623 1.599567
4.094821 0.008886 0.058003
5.017688 -0.096137 1.492959
-0.094553 0.116113 0.022768
0.023008 0.086505 0.035901
-1.880484 -2.110927 1.543969
-0.033272 -0.001281 0.060641
3.943977 -0.136583 -0.088416
3.994929 0.119341 0.003058
5.037686 5.020108 1.416717
4.995281 -0.137361 1.725201
-0.078930 0.041217 -0.100574
4.161021 0.007263 0.037515
4.114378 -0.084487 0.132845
5.041935 5.034852 1.496020
4.874947 5.030580 1.474765
0.049243 4.852654 1.354617
-2.095685 -2.000263 1.703484
4.993102 5.043094 1.577149
-0.115305 -0.158529 -0.227429
5.279657 0.261902 1.599097
4.915107 4.977361 1.451979
0.097397 5.026747 1.498338
4.032794 -0.039182 -0.011026
3.834549 4.016523 0.018370
5.134716 0.011881 1.322532
-0.037416 0.000843 0.054235
4.196284 3.977707 -0.040186
-2.021508 -1.957857 1.688119
0.019224 4.960212 1.508904
4.897649 0.128715 1.584410
0.126092 3.967851 -0.033468
4.089032 3.889051 -0.158878
4.787170 0.039705 1.461814
4.118005 -0.100476 0.228743
3.965095 -0.013312 0.060009
5.098162 5.104649 1.313965
5.046194 5.003964 1.470034
3.919848 -0.068480 0.105043
4.061427 4.135750 -0.153980
3.907976 0.049447 -0.006747
4.063242 3.881962 0.008834
-0.175318 5.038673 1.588668
0.027394 5.131994 1.409564
0.116402 0.099662 0.101058
-0.096065 5.090398 1.376017
3.979323 3.969532 0.032640
-1.938912 -1.908743 1.577102
-2.152704 -1.906431 1.481892
4.921666 4.720330 1.426202
-0.016601 4.031701 -0.025767
0.250035 4.079616 0.031709
-0.046525 4.055883 0.188517
-0.079628 4.832462 1.519732
3.857130 4.115781 -0.076237
4.153281 4.045626 -0.004795
3.816614 3.966943 0.072939
4.150161 -0.043762 0.040436
0.097169 4.899473 1.472827
-0.018920 3.924164 0.115385
3.914758 -0.234651 -0.076247
4.024776 4.018348 -0.014992
5.039213 0.060925 1.532734
5.111540 4.928454 1.521865
-0.151000 4.915593 1.507719
0.071324 0.138935 0.045843
-2.111737 -1.798165 1.456843
4.006558 4.067759 -0.064521
0.068440 5.189283 1.720460
-0.077081 4.938575 1.404724
4.072386 0.077336 -0.036061
5.017248 4.939488 1.503953
5.077734 0.104737 1.522554
-2.004585 -1.800146 1.483245
5.136808 5.024155 1.669475
4.102079 4.151909 0.042563
0.095344 4.945673 1.554555
-2.058200 -1.906187 1.589240
0.098231 4.059201 -0.031224
0.116989 -0.061900 0.007653
0.140996 0.035911 0.070099
0.022529 0.075336 -0.058540
0.003251 3.845162 0.079452
-0.026433 5.106988 1.298317
0.112085 -0.118501 0.164099
-0.013802 -0.147107 0.122773
4.105184 4.007520 -0.201075
8.496712 6.870880 -0.075174
5.060036 0.169409 1.586072
4.013870 0.164958 -0.147866
4.926420 0.028250 1.471560
4.104949 -0.039045 -0.196789
4.942689 -0.019360 1.415623
-0.148778 0.068391 0.085555
0.020823 3.918016 0.005424
0.186539 4.010718 0.014183
-0.180943 4.918416 1.543019
4.083282 3.853879 -0.142368
0.033928 4.947627 1.335201
0.074188 -0.032482 -0.077167
-1.984287 -1.992683 1.581170
4.961616 5.037069 1.550527
5.047315 -0.052030 1.516153
5.206110 0.121314 1.313918
-0.140533 4.075050 0.011287
-2.054865 -2.097976 1.475101
-0.181417 -0.038631 0.045312
3.942403 4.177900 -0.106306
3.940494 4.200397 -0.007819
-0.167847 -0.026338 0.171496
0.003680 4.007366 0.170932
-0.074038 4.796129 1.509576
5.062063 5.087315 1.469728
4.934114 0.108837 1.563829
-0.019787 4.290557 0.073983
-0.136840 -0.096229 0.105674
0.167031 4.990984 1.621758
-1.985079 -1.927452 1.682645
4.969523 -0.024131 1.528103
-2.184807 -2.140436 1.461690
4.075356 4.005393 0.110818
-2.059678 -2.072522 1.679613
4.139477 -0.023222 0.138066
0.099039 5.000877 1.595208
-0.094983 4.138195 -0.210582
-1.991719 -2.076923 1.411925
-0.154368 4.849155 1.530023
3.606970 7.919148 0.006620
3.998213 -0.085777 -0.055033
4.970551 0.011842 1.410376
3.918003 0.050085 0.028084
4.994091 5.066639 1.509764
4.903310 0.141882 1.598375
3.841040 4.016001 -0.132531
-5.130751 -6.139971 -0.005882
4.942656 0.137188 1.424729
0.029200 3.888213 -0.220531
3.999517 3.791165 -0.073672
5.003132 5.178089 1.411114
3.822299 0.011717 0.035372
4.183556 3.959520 0.148104
4.833310 4.928994 1.807518
-0.101967 3.976458 0.085228
5.018922 5.011073 1.361363
4.986374 4.931058 1.579041
-1.909679 -2.086519 1.640065
3.942309 4.141114 -0.028253
0.177853 0.118426 0.070178
3.882914 0.042976 0.135252
4.078058 0.034104 -0.004477
-0.091993 3.900939 -0.228841
-0.068814 3.993399 0.167119
0.007445 3.998498 -0.054832
3.948835 -0.073461 -0.066509
4.201664 0.094510 0.037965
4.013968 3.998696 0.076593
5.070255 4.943038 1.506446
3.864349 3.903759 -0.123170
-0.004001 5.079371 1.297116
-2.097829 -2.060846 1.573399
-0.127557 -0.154507 0.026978
3.961407 0.011257 0.057690
5.008171 4.955021 1.516290
4.142964 4.071781 -0.122503
5.037142 -0.034797 1.138294
5.136455 5.000589 1.532888
4.902440 0.071292 1.532954
0.054610 4.876663 1.401553
3.977140 -0.068709 0.141855
-2.114110 -2.010030 1.660132
5.096106 4.939473 1.580705
-2.027614 -1.895226 1.652356
0.178903 4.095110 0.027361
4.046080 3.943415 -0.028161
4.056055 4.110087 -0.067936
4.028640 3.901115 -0.014202
-1.972394 -1.957046 1.620551
0.041953 5.146748 1.485325
0.023185 4.923093 1.516356
4.942384 5.022581 1.392914
-1.969207 -2.066889 1.647085
4.076523 4.105614 -0.022707
-2.055348 -2.091100 1.374794
4.979037 0.029553 1.444070
-1.888609 -2.094852 1.447612
4.973727 4.851808 1.405728
-0.067057 5.228418 1.374256
4.835867 0.042613 1.283643
4.963217 5.106346 1.577222
0.001509 5.160802 1.547814
3.770224 -0.025023 -0.049862
4.065941 4.013522 -0.241747
0.023525 3.989524 0.059717
-2.178075 -1.913621 1.448096
-0.160477 4.850079 1.633246
5.097637 -0.020920 1.311848
0.189266 4.037077 -0.044854
0.001659 -0.063262 0.094476
-1.904471 -2.029527 1.414144
3.860917 0.113620 -0.079900
-0.121866 4.267540 0.024284
4.046285 0.059734 -0.025779
4.043059 -0.089086 0.082612
0.095733 4.143857 0.004628
-0.245693 4.027980 0.138281
-0.066385 0.084225 0.144412
3.908220 -0.199599 -0.097115
-0.161807 5.120379 1.509853
4.904573 -0.186555 1.572509
4.001558 3.993329 0.013416
0.047492 5.161586 1.606227
-0.044083 0.090622 0.037892
4.925887 4.846111 1.533320
5.125494 0.047065 1.464258
-0.001602 3.947426 0.041462
4.039629 4.016489 -0.120316
5.107642 -0.246624 1.361389
0.001712 4.010618 0.051519
-0.094770 5.200235 1.576311
5.257940 -0.029951 1.393642
4.002703 -0.120438 0.017386
-2.108196 -1.892815 1.563386
4.853012 5.069183 1.502648
4.004659 4.063776 -0.033436
-2.135591 -2.103451 1.337077
0.226123 3.799499 0.037931
-2.057409 -1.871431 1.511945
3.997977 4.061405 -0.066876
4.021456 4.090662 0.001087
4.949214 -0.144154 1.593576
3.949150 0.036737 -0.036126
-2.152191 -1.958940 1.536857
3.846022 4.039701 0.096025
-2.002634 -1.922462 1.552402
0.036077 5.016288 1.368355
6.036550 4.097078 -0.043847
4.085674 -0.005660 0.013917
0.090126 3.890984 -0.024101
4.921004 -0.006154 1.370781
4.854204 5.123299 1.569174
4.084358 3.835364 0.028674
3.925648 0.018734 0.016668
-2.049388 -1.846614 1.441553
3.914006 4.010723 -0.049792
4.919968 5.170014 1.337612
4.061913 4.011995 -0.031955
0.005790 0.158523 0.007682
4.978795 0.018668 1.627962
-1.886075 -2.099727 1.805471
3.874824 -0.103298 0.020648
5.017262 4.992956 1.338027
0.048942 3.915228 0.044489
3.994496 4.218706 0.132779
-0.027525 5.044683 1.355446
4.047454 0.152230 -0.068625
-1.874300 -1.942093 1.514175
-2.100140 -1.932056 1.338910
-0.053856 -0.186644 0.108398
3.957956 0.026273 -0.014624
5.007816 -0.126139 1.367133
0.082417 4.189336 0.045792
4.067075 4.044852 0.056824
-2.227130 -2.077283 1.496721
0.156807 0.202847 -0.118925
5.146191 5.100041 1.410887
-2.113657 -1.913324 1.475316
-0.185366 0.217920 0.091018
-0.018424 4.775771 1.529512
0.222936 -0.094515 -0.147764
4.887360 0.256842 1.537690
-3.614341 -1.556916 0.017464
-3.927790 -9.090048 -0.031633
4.043108 0.121647 0.054204
-0.213297 -0.097050 0.013389
3.966711 -0.119239 -0.113289
-0.058536 -0.029533 -0.058784
-1.842612 -1.837701 1.545538
-1.896011 -2.238105 1.595083
3.950549 4.151342 -0.054077
4.044443 4.130284 0.031065
4.938066 5.029012 1.573976
-0.238791 3.882392 -0.067619
4.024388 -0.015073 0.031402
0.118679 4.875471 1.478194
3.976032 4.031616 0.168453
5.005586 5.028267 1.550205
-0.095890 4.144438 0.048026
0.019998 3.833179 -0.020274
5.135638 4.905769 1.513799
0.055600 3.999482 0.071800
3.989202 -0.163109 -0.029246
-1.980916 -1.788257 1.437898
-0.117878 4.925834 1.482688
-0.178170 3.998908 0.127096
5.091661 5.088697 1.564262
-1.900451 -2.198237 1.550822
0.119093 5.045488 1.745465
-0.098921 4.055885 -0.051767
-2.175176 -1.956930 1.493892
0.064966 4.081086 0.055073
-0.005690 4.917875 1.414793
5.050129 0.101402 1.546972
-2.114255 -1.936560 1.382349
3.964700 3.929959 0.132641
-0.030631 3.807503 0.072278
-0.164079 5.035141 1.583284
5.037310 0.011580 1.582610
-0.018717 4.066809 0.051631
3.776650 0.010923 0.134604
4.110687 -0.027633 -0.007952
4.974511 0.001003 1.542985
-0.016705 0.067238 0.043575
4.160584 3.889828 -0.073576
4.039016 4.028657 -0.112213
-0.142064 0.056863 0.070001
5.095421 5.031825 1.528111
-0.308989 3.954286 0.233523
4.080993 -0.037842 -0.140221
4.616418 0.449060 -0.037252
0.057061 3.876893 0.058212
4.062315 0.030239 -0.051112
-0.088332 -0.051947 0.104358
-2.222179 -1.791411 1.524223
0.149726 3.970128 -0.106708
-0.227877 3.951179 -0.025211
-0.097793 3.919686 -0.004489
-0.043089 4.835370 1.419068
-1.878048 -1.975220 1.364443
0.135485 4.978084 1.474660
3.982749 0.029795 -0.020682
5.041216 5.081597 1.484154
5.042733 -0.054719 1.733644
3.916200 3.858762 0.078115
5.206784 0.061103 1.284928
0.073175 3.953916 0.014231
3.968216 -0.046356 -0.102024
4.889645 -0.012843 1.511765
-0.041105 3.986036 0.037994
4.100057 0.193023 -0.063482
5.029369 -0.107238 1.803551
3.978101 0.056430 0.028198
4.939149 4.863287 1.307552
3.844212 3.959733 0.178086
0.002550 3.895289 0.092061
4.026644 4.037418 -0.121411
3.985444 -0.169810 -0.100065
4.023418 0.070942 0.012655
0.178376 4.072952 -0.097003
4.067635 3.849379 0.189543
4.823139 -0.105198 1.887548
-0.009271 4.862746 1.449351
-1.954225 -2.082649 1.384951
3.943652 3.964069 0.017153
-1.718484 -1.932260 1.422588
0.225241 5.150895 1.354857
4.976041 0.079693 1.514975
0.024264 5.031094 1.555774
-0.088047 5.067488 1.404535
0.037963 3.862755 0.028228
3.834712 4.166682 -0.088523
-0.217362 5.013565 1.350611
5.105211 -0.053292 1.598773
4.993667 4.818663 1.462120
0.112341 -0.067141 -0.107009
5.196526 3.225512 -0.027725
3.968594 0.034628 -0.015554
4.904905 5.021368 1.608588
5.055348 5.000103 1.323650
0.049154 0.030598 0.115907
-2.138641 -2.087501 1.596070
-0.042439 0.089278 -0.013662
0.131372 4.953283 1.574477
-0.001850 -0.066540 -0.025325
0.061686 3.794046 0.002860
-8.013729 -8.825737 -0.040841
4.996696 5.049219 1.554144
3.990694 3.758217 -0.189037
3.976499 3.999245 -0.028524
4.097466 -0.000622 -0.018538
-0.002477 4.050274 -0.004358
0.249662 3.978552 -0.147581
5.005688 -0.102325 1.472016
4.185108 0.017112 -0.174174
-1.972195 -1.845607 1.477214
0.147092 0.029244 0.079878
-1.886812 -1.982367 1.640311
4.905198 -0.125871 1.412018
-0.253622 5.077893 1.523379
4.051313 4.049343 -0.057574
-0.059195 -0.086124 0.157151
-0.088504 -0.163290 0.005423
0.016692 -0.031127 -0.021906
3.963431 3.797766 -0.068321
5.083467 4.944282 1.504024
3.946531 4.075596 -0.001167
0.073870 0.060906 -0.015954
0.002217 5.123901 1.252039
-2.083988 -2.211370 1.374251
-0.005498 -0.115681 0.025923
5.006931 0.009668 1.587798
0.072575 3.803084 -0.029182
5.086241 0.103244 1.479665
-0.148658 -0.037048 -0.065558
4.071492 0.011444 0.081258
3.952034 3.906896 -0.109033
4.042248 0.047632 -0.009152
0.003380 5.118478 1.308097
0.063109 4.988013 1.484576
4.070961 4.005755 0.067461
4.122913 -0.030134 0.106013
0.081282 5.010143 1.468227
0.114554 4.106407 -0.095726
0.145981 5.082938 1.408635
0.012821 4.996604 1.548754
-1.901749 -2.166392 1.455069
4.165777 0.034148 -0.030267
0.084828 -0.000187 0.079925
0.034935 0.030122 0.020734
3.938166 -0.188225 -0.054357
3.955361 0.150287 -0.055092
-2.114470 -2.033393 1.347772
-0.061596 5.015931 1.520455
3.988522 3.842665 0.010759
-0.006779 3.979032 0.112483
5.080126 5.012007 1.507204
4.960490 -0.095525 1.424975
3.986380 -0.006162 -0.030966
4.962011 0.036792 1.494756
4.994781 -0.130621 1.489970
-0.009317 4.011108 -0.022212
-0.054146 5.059590 1.356203
4.849931 5.126613 1.384497
3.994390 3.914963 0.150370
0.014480 -0.025992 -0.219262
-4.675946 3.143114 -0.055513
0.047208 3.932400 -0.037428
-0.261253 4.925847 1.577328
4.962244 -0.046080 1.460700
5.136090 4.956317 1.522848
5.134393 0.087452 1.509840
4.991608 5.020408 1.508706
4.093414 0.033916 -0.167914
0.059615 -0.016488 0.062389
-0.003049 3.893207 0.116597
0.066521 0.156556 0.057671
4.976366 -0.079132 1.630492
-2.272973 -2.048525 1.635125
5.026780 5.058755 1.580834
3.978896 -0.035904 -0.070730
4.881135 5.116785 1.578161
0.258231 3.904981 0.255402
0.114885 5.133757 1.420561
0.167278 3.849797 0.031997
3.983481 0.103060 -0.067861
-0.096516 0.120582 0.013253
0.108264 5.082005 1.715028
4.946918 5.007824 1.418914
3.875349 0.050721 0.104046
0.190609 4.949586 1.512104
3.640913 -6.293986 -0.104715
4.126695 4.129699 0.049089
4.952032 -0.159461 1.505187
2.541919 7.245095 0.072585
3.868805 3.902698 -0.061118
4.020334 -0.093916 0.061488
4.037319 -0.021151 0.035025
5.013026 4.942964 1.489605
0.168799 -0.123317 0.012553
0.109799 3.793888 0.004503
-2.043381 -2.056105 1.595657
4.021120 3.879264 0.044548
5.109257 -0.129353 1.531946
-2.038934 -1.956984 1.625679
5.009379 5.108580 1.440586
0.124306 5.087937 1.509504
3.936017 -0.092497 -0.039895
0.222662 4.047940 0.070374
4.049932 0.043645 0.005103
3.983841 4.084939 -0.000591
-2.007948 -2.001465 1.393447
-1.960737 -2.057560 1.400022
4.081728 -0.020988 -0.059887
4.080818 4.004062 -0.115441
5.042220 4.933504 1.629881
4.764874 0.036966 1.504172
4.990048 4.896615 1.483970
-0.047700 0.058423 -0.075144
3.964515 3.905018 0.067125
-2.150409 -2.154863 1.524560
4.870227 5.069823 1.558417
5.008370 5.025242 1.405761
0.113716 4.009077 -0.019391
4.856572 -0.065486 1.519705
4.019141 3.826028 0.119969
-1.941601 -2.069765 1.464154
4.185008 0.010356 -0.159375
3.935691 0.001342 0.027185
3.918144 4.100190 0.016957
5.173006 -0.147869 1.396941
3.871959 0.068552 -0.004769
-0.115501 0.157336 0.011347
0.005986 3.957748 0.035702
4.037116 3.837556 0.041211
0.074756 -0.025894 -0.000014
3.934326 4.125085 0.144050
-1.989313 -2.046567 1.634546
0.256277 5.037014 1.587911
0.056602 -0.006657 -0.176711
-2.018645 -2.119893 1.683958
-1.757704 -1.962755 1.466842
-2.002039 -1.867117 1.545138
4.949955 5.026316 1.534609
4.958397 0.126668 1.506493
-0.099638 0.149704 0.036686
-1.863250 -1.893456 1.395108
3.844871 -0.045566 0.081492
4.922589 0.010215 1.525464
-2.094687 -2.044375 1.556080
-2.117810 -1.865246 1.688174
-0.004838 5.117145 1.484483
3.965374 0.006337 0.042719
4.900397 4.709001 1.497970
-1.897523 -1.913878 1.408063
0.088306 4.041896 -0.018595
-0.024971 5.126039 1.334043
3.993128 -0.051228 -0.068792
5.056740 5.074475 1.419799
-2.019458 -2.141737 1.591566
-0.105086 -0.181990 -0.148033
4.176690 3.903417 0.013684
-0.086335 3.969000 -0.076467
-0.001381 4.972704 1.616162
-2.068000 -1.899535 1.637204
-0.063174 5.157364 1.666643
5.209661 4.890897 1.544852
3.922976 0.164217 -0.079399
-0.069280 4.066084 -0.071650
4.183672 -0.080279 -0.028791
5.137503 -0.012691 1.422812
3.992199 4.027180 -0.018729
-0.186745 5.028222 1.483055
5.180071 5.075959 1.485797
4.026592 0.013710 -0.101611
0.103250 4.893076 1.542466
0.214916 5.223044 1.549253
-0.084429 4.107625 0.115366
5.048049 4.905363 1.443594
3.979564 0.020467 -0.065550
0.023709 4.034991 -0.122737
-0.143887 0.155165 -0.042706
-0.022385 4.126293 0.089466
4.055283 0.080488 0.189715
-1.914200 -1.914912 1.440019
-0.045896 3.991436 0.075463
4.914612 4.994832 1.506723
4.075661 0.151008 -0.102240
4.072538 4.028200 -0.065998
-0.046006 4.948443 1.551446
-0.115818 5.031255 1.543307
5.022223 5.048954 1.416484
0.102669 4.131415 -0.107270
0.039285 4.137271 0.034722
-0.007601 0.321024 -0.070710
-1.828293 -1.880657 1.553065
0.095873 3.905507 -0.076877
-2.049104 -2.118003 1.518593
4.900889 -0.103775 1.493533
4.912793 5.006687 1.506453
-0.074544 3.998498 0.026031
-0.058810 4.178716 0.086541
-1.951974 -2.024112 1.317191
0.009661 0.133388 -0.139309
0.164077 4.131532 0.093016
4.101738 -0.163420 -0.064980
0.125036 4.032809 0.007521
8.145050 0.923658 -0.027517
-0.489239 8.457988 0.073353
0.048002 0.019119 0.170118
-0.006722 -0.131709 -0.035393
5.131039 5.011746 1.409391
4.176861 4.049402 0.118615
0.040423 0.013801 -0.039858
-7.684698 -1.878499 0.069817
-0.000059 4.698960 1.426675
4.004644 0.036277 0.122151
0.102718 0.013654 -0.031743
-1.961724 -1.892344 1.441184
0.020774 0.182969 -0.038525
-2.071784 -1.890695 1.417222
4.018215 4.114486 0.060461
4.036580 0.098946 -0.014166
4.040610 -0.076417 -0.021760
-0.098810 4.055624 0.095509
-0.034743 4.975899 1.465128
5.038150 0.036209 1.733327
0.021019 4.964034 1.428669
5.067365 4.816924 1.671629
0.129005 9.401861 0.029786
-0.018333 0.080291 -0.146702
0.146723 4.976389 1.628099
-0.098577 3.933965 -0.073958
5.145526 -0.150131 1.490584
5.111164 -0.031859 1.496697
-3.517670 -3.757234 0.013546
-0.026118 4.081769 -0.041659
4.003523 3.825444 0.064896
-0.162175 4.108562 -0.065705
5.148485 5.037616 1.492811
0.063287 4.980591 1.471442
-0.074934 4.993881 1.378364
4.940228 0.009281 1.492658
4.975502 4.879447 1.646044
4.036685 4.015609 -0.038829
0.045753 5.061563 1.532707
-2.144140 -1.961718 1.593582
0.014296 -0.080359 0.220472
4.886554 0.005985 1.309911
4.011746 0.016196 -0.016985
-1.973743 -2.194516 1.566960
-1.982360 -1.933984 1.582967
4.987447 4.996138 1.597946
0.157327 3.958071 -0.042836
-0.044887 0.060892 -0.017751
5.036451 4.847982 1.472249
5.009755 4.963768 1.387873
-0.283739 4.054452 -0.017348
-0.055102 5.063832 1.592374
-2.021672 -1.958802 1.355640
-0.013830 0.144437 0.054435
5.016807 -0.047232 1.280656
0.179969 5.031158 1.566600
0.073947 4.957152 1.679847
3.962934 3.990621 0.044082
5.102121 5.108167 1.580958
3.947596 3.910710 -0.001274
5.026650 -0.074700 1.387145
-1.970063 -1.983892 1.523557
5.188790 4.959376 1.560172
5.117203 5.014942 1.438762
4.008146 0.027929 -0.035192
-1.868121 -2.102828 1.566711
0.109894 5.074477 1.830816
-1.873928 -2.171792 1.392985
4.892007 5.053520 1.368485
0.007815 -0.100953 -0.096211
3.873038 4.040412 0.009518
0.111612 0.054594 -0.139284
-0.002733 -0.073055 -0.085401
-9.568157 8.545770 0.059605
0.030574 -0.011177 -0.036438
-2.018492 -2.140473 1.389035
-2.074377 -2.073679 1.429684
-0.100063 5.066426 1.514856
0.015787 -0.084319 -0.018810
-7.538381 2.346008 -0.012526
-2.124800 -1.998152 1.361390
1.465848 -0.345946 0.111229
4.981458 0.006872 1.607245
4.859660 5.050076 1.599850
-0.086566 0.104194 0.132642
-1.965895 -1.925333 1.450751
-0.003589 4.073440 0.012391
0.171390 4.960830 1.565235
0.132547 4.692524 1.442846
5.034104 -0.100126 1.614386
3.911357 0.047982 -0.016924
-0.124626 4.080930 -0.054032
0.000742 0.027127 -0.028834
4.029460 0.048042 -0.024689
5.092633 -0.084387 1.447367
-1.857997 -2.055637 1.380420
4.019414 4.123773 0.075382
4.803192 5.020722 1.385416
-2.104235 -1.823877 1.589781
0.118111 3.800349 -0.037928
4.101039 0.208217 0.088915
3.885665 4.038234 0.007814
-0.195711 -0.042964 -0.142706
3.960600 4.024300 0.169970
0.100808 3.857549 -0.042016
-1.731906 -1.776707 1.429450
3.984755 4.083902 0.071118
5.087796 0.016850 1.447145
0.072995 3.931927 -0.000540
5.045975 0.149961 1.415276
0.105307 4.105942 0.034428
5.022643 4.829161 1.468764
5.038116 4.887820 1.527901
4.051023 4.071627 -0.060870
4.942318 4.933964 1.549809
5.102843 4.972196 1.586672
5.169648 -0.040385 1.644189
3.948433 -0.122894 0.201576
-0.000570 3.987628 -0.082087
5.121859 0.136861 1.450733
0.084033 4.047842 0.034457
4.045489 0.098306 -0.040668
-0.090524 3.918290 -0.107240
-2.032664 -1.953122 1.487282
3.818069 4.071495 -0.097197
0.020998 3.996402 0.209020
4.164256 3.994917 0.112711
-0.144497 4.980647 1.483591
5.072921 -0.019896 1.561910
4.865335 5.108400 1.662231
0.061477 3.957338 0.034043
-2.100041 -2.007962 1.818617
-1.968544 -2.148768 1.520438
5.005075 -0.015623 1.431360
5.077855 5.090024 1.549597
-0.235722 0.129525 -0.074263
0.006802 3.938537 0.080639
0.016233 0.080623 -0.058399
4.088175 -0.006579 -0.086260
3.865459 0.050513 -0.099115
-0.095117 5.096143 1.380462
5.000517 0.074782 1.448189
4.983674 4.978617 1.544783
-0.208182 5.015962 1.374312
4.094506 0.054095 -0.076390
4.147760 4.058490 0.013021
0.077950 0.197246 0.232054
-1.947142 -2.277207 1.407054
-2.124313 -2.119522 1.543272
-0.055185 4.052870 0.143751
4.163067 3.924953 -0.039345
3.991438 0.098137 -0.113676
-2.083776 -1.903625 1.388973
5.092936 4.898224 1.508140
-0.127433 0.066435 0.103519
0.036027 4.788698 1.520991
3.827815 3.989287 0.026468
0.011890 3.941602 -0.033513
-0.152872 5.042116 1.552016
2.887618 7.290646 -0.052297
4.974055 5.060708 1.489517
-0.011598 -0.043104 0.057851
3.952886 4.087358 -0.101782
-0.005135 4.780666 1.452110
5.045161 4.994220 1.593936
0.043299 0.046948 0.082018
4.982552 5.168408 1.618178
4.881293 5.043292 1.428184
5.009552 0.008370 1.450998
3.931862 4.084157 0.001536
-0.020809 3.920138 -0.074464
-1.932215 -1.924671 1.442026
4.154102 3.940445 -0.018426
4.928854 0.083566 1.597563
4.902569 -0.017106 1.410823
3.988471 0.031642 0.027989
0.167145 4.950141 1.559135
0.076159 0.111710 -0.148652
3.952566 3.918387 -0.221903
5.146635 0.032980 1.460837
3.841641 3.966201 0.055954
-2.162451 -1.973121 1.341428
4.044802 3.844393 0.042253
5.121492 0.101293 1.527075
3.865637 -0.027297 -0.008775
4.044627 3.975209 0.104078
4.017722 -0.026145 -0.039973
4.051014 4.113498 -0.056832
4.144447 3.935508 -0.036096
5.063761 -0.025156 1.331425
0.017637 -0.051100 -0.036197
-0.090823 -0.032178 0.051686
-0.132187 4.871619 1.570923
3.924234 4.269191 0.040972
5.149486 4.811273 1.478344
-1.849343 -1.747612 1.491283
-0.196808 0.167257 0.039303
0.222563 0.036070 0.003206
5.092346 -0.010386 1.494215
-0.054055 0.050227 -0.022377
3.996631 -0.039925 -0.016228
-0.005396 -0.130949 -0.060142
5.101689 0.058789 1.542140
-0.001410 5.084338 1.505024
4.883156 4.981029 1.426713
3.883378 -0.105015 -0.065299
4.904477 0.137424 1.374667
5.163691 5.108143 1.405587
3.914391 3.971276 0.166735
-0.027174 -0.137795 -0.035556
8.748117 8.200431 0.012927
4.030062 4.110141 0.096828
3.971158 4.117418 0.068927
3.991445 0.037856 -0.024616
3.897575 3.998353 -0.077586
-0.078901 4.816451 1.707835
4.008081 0.028818 -0.014374
-1.942356 -1.904327 1.601266
-1.934793 -2.032823 1.326786
4.173016 -0.012156 0.051770
3.955672 -0.097317 0.016298
4.046945 4.066726 0.057812
4.102783 0.065035 -0.052481
4.014626 0.049462 0.086845
4.079765 3.980834 -0.033792
-2.161551 -2.094051 1.464771
-1.867658 -2.067018 1.688696
0.093528 0.068446 -0.034483
5.092390 5.194671 1.473056
4.086740 3.891542 -0.041085
0.034558 4.844888 1.545361
4.198934 4.108840 0.213184
3.830967 3.967524 0.239705
-1.956812 -1.895150 1.449002
4.787530 0.104054 1.464103
-0.024779 -0.204076 -0.076309
-0.098954 0.042217 0.066809
4.938877 0.092961 1.366248
3.914902 -0.090814 -0.023515
4.027645 -0.147886 -0.013110
-0.055999 0.074844 -0.106260
5.082511 4.968000 1.401936
5.023129 5.072092 1.585817
4.008841 3.872786 0.047063
4.030043 -0.082478 0.112972
0.083429 4.101074 0.056970
-0.216698 -0.027752 -0.141735
-1.886753 -2.224012 1.533867
3.977440 0.057988 0.149518
-0.124772 3.953137 0.058104
4.110466 3.785788 0.031585
4.006244 4.094310 0.074744
-0.113483 4.969799 1.507910
-2.016221 -1.957157 1.419201
-0.079876 4.066488 -0.185104
-0.201334 4.999221 1.545886
4.015359 -0.107903 -0.028584
8.009081 -5.202810 -0.015328
0.015601 3.964561 0.170323
-0.085184 4.845640 1.385317
-0.080565 5.031352 1.360533
3.999962 4.151551 0.102047
4.886894 -0.119916 1.468145
4.132764 4.207212 0.128678
0.189153 4.900171 1.303559
0.038231 5.034421 1.448408
-0.031683 4.973583 1.501518
4.935194 0.034420 1.637893
5.054739 4.966616 1.539567
5.015220 0.133541 1.426637
4.813888 0.018169 1.335428
0.075014 -0.087685 -0.083466
5.065023 0.022330 1.442421
0.099617 3.878037 -0.010263
3.952542 -0.214333 -0.047411
4.831019 5.095825 1.498203
0.164719 4.088827 0.143573
5.082526 -0.086309 1.475026
4.930867 -0.083901 1.509436
-1.829922 -1.952027 1.340088
4.983036 4.907016 1.577454
-3.644239 -6.715696 -0.069985
5.056594 5.185247 1.524103
0.063347 0.029815 -0.026118
-0.077023 4.230040 -0.011988
4.000330 0.005834 -0.056587
-2.110188 -1.869156 1.293375
4.959839 4.937469 1.479691
-2.133041 -1.993748 1.667228
-1.908926 -1.824681 1.551261
4.089328 4.070507 -0.096970
-0.047534 4.998067 1.643063
-1.917590 -1.982561 1.601608
0.165993 4.029921 0.007516
-0.127350 -0.069010 0.078484
-0.037298 5.405525 1.582557
0.037782 5.029391 1.389100
-0.143329 -0.100662 -0.011269
-0.142822 0.087658 -0.001141
5.215608 0.190795 1.482664
4.119024 3.985463 -0.055405
3.892850 3.849410 -0.013774
4.036376 3.894742 -0.048141
-0.043147 5.061387 1.628210
6.671368 5.510565 0.006155
4.918949 0.040030 1.516508
3.906950 3.995884 0.140626
-0.099304 4.175612 0.075941
5.013220 5.021460 1.635787
-0.131621 4.959973 1.541856
4.026351 0.001694 0.080161
-0.089875 0.123940 0.092891
5.039603 -0.019901 1.743189
-1.926998 -1.986538 1.503903
-1.961049 -1.964988 1.472222
-2.116423 -1.963224 1.445914
4.989711 4.976290 1.426872
4.947675 5.003168 1.456309
0.068707 5.029130 1.495487
-0.045023 4.011430 0.066827
-0.106421 3.891028 0.047383
4.865008 5.252338 1.419953
5.089676 -0.077734 1.314817
0.115797 0.089496 0.117165
4.917157 4.973486 1.330839
5.099226 0.053230 1.502965
-2.099461 -1.749032 1.585596
3.962184 0.098420 -0.099554
-0.190339 0.157488 0.008768
-1.899099 -1.940615 1.487875
5.017647 5.215213 1.386606
3.970064 3.898860 -0.060775
-0.027035 0.023461 0.097552
3.951094 -0.070845 0.029204
4.813117 5.119454 1.638168
4.999142 0.110635 1.345940
5.225134 0.036779 1.405097
5.020868 5.036976 1.484220
-1.952647 -2.026149 1.369625
3.980907 4.006866 -0.120382
4.031491 0.055984 -0.097693
4.049243 4.116447 0.178881
4.051912 3.992201 -0.023175
-0.009522 4.069960 -0.003984
5.023110 4.918491 1.470762
-2.103794 -2.095896 1.468847
-0.008370 5.247590 1.233197
-0.097333 -0.093054 -0.020677
5.055656 0.111331 1.507627
0.012617 -0.009547 -0.043753
4.078512 0.123406 0.087217
5.006015 5.036444 1.336654
4.008272 4.013977 0.148254
5.031560 5.136888 1.577782
4.959855 0.009530 1.733875
5.115642 4.952214 1.456265
4.129180 0.011150 0.229516
5.014797 5.003758 1.538811
4.972948 -0.106907 1.453591
4.826714 0.167305 1.436470
-1.927863 -1.764925 1.499293
-0.152962 0.165959 0.056463
4.015097 -0.108071 -0.068219
4.106768 0.031152 0.040458
0.014832 4.093414 0.108066
-0.082278 3.809200 0.044539
4.132249 3.947158 -0.120278
5.024646 -0.010036 1.516092
4.886117 0.113652 1.400118
-1.959910 -1.955114 1.425431
0.208993 0.089821 -0.012249
0.001650 0.119694 -0.133887
-0.054873 -0.074753 -0.057962
-0.100495 3.962585 0.199075
-0.040178 5.217429 1.486084
-6.318672 4.618358 0.080622
0.023982 -7.580012 0.052614
9.126780 -6.536138 -0.013921
4.979652 4.993096 1.538819
4.966875 4.903401 1.533604
3.961517 4.083039 0.000664
4.977720 5.055207 1.737673
4.921156 4.833739 1.494108
-1.882674 -2.117375 1.385995
4.950689 0.037338 1.480323
4.086859 3.947502 -0.094990
-0.050250 4.996960 1.611912
-0.073976 -0.017067 -0.048147
4.020179 3.840547 0.033710
-1.975243 -1.950860 1.541133
4.866161 5.012409 1.490217
-1.948111 -1.700566 1.467138
5.063782 4.895278 1.653150
-0.039804 0.201126 -0.136449
4.125782 0.068547 0.024086
0.044355 5.198883 1.550659
-0.040003 5.194826 1.470838
5.185059 0.216518 1.494309
4.125757 0.055219 -0.059828
0.020443 4.987728 1.472034
0.018116 0.069674 0.036273
0.059501 -0.069353 0.028553
4.996666 4.934031 1.467796
0.054598 0.037454 -0.079851
3.988671 -0.146630 0.012127
-0.162833 3.965888 -0.125003
5.229429 -0.060370 1.662805
4.068611 3.977648 0.111954
4.304083 -0.026671 0.003652
-2.031251 -1.962282 1.457408
-0.061536 3.954938 -0.212500
-1.927838 -2.216158 1.466369
3.958076 0.023920 -0.001711
5.112044 5.084743 1.518593
4.953281 0.045007 1.499316
4.064985 -0.042911 0.114688
3.961373 3.974731 -0.049189
5.070304 5.055586 1.561058
5.090197 4.982412 1.447713
0.058123 0.022803 -0.196772
4.997822 0.157794 1.585948
3.976607 3.939146 0.026035
5.011842 -0.022475 1.644278
-2.084607 -1.824099 1.545772
3.973413 3.996900 0.065151
3.929027 3.888913 -0.050085
5.205529 -0.085123 1.465431
4.029973 3.945628 -0.170553
-2.309100 2.753135 0.105042
-0.209297 5.099302 1.353757
4.924189 5.048918 1.704811
3.968882 -0.024020 0.055578
4.079522 0.066037 0.109404
-1.970681 -1.907663 1.526988
-0.155563 4.776497 1.421114
4.854744 0.059873 1.316543
0.068647 4.934246 1.632483
3.977966 3.887065 0.080777
-0.022666 -0.168512 0.121382
0.146865 0.032742 0.103306
3.976469 -0.053396 0.069649
3.860846 4.105202 0.077175
-2.005353 -1.796815 1.506548
0.102350 4.988020 1.587870
-0.061332 -0.196631 0.074137
0.102443 5.074038 1.382079
-0.195429 4.968312 1.515470
0.117796 4.226791 -0.017463
4.941487 4.915710 1.516870
0.029016 3.879376 -0.025992
0.069687 3.850931 0.122718
4.764685 4.911186 1.354407
5.080315 4.939514 1.516517
3.999442 0.089902 0.087232
0.039178 3.852834 0.126441
-0.049771 -0.078549 0.139865
-1.984600 -2.138351 1.566182
3.920115 3.963034 0.054791
-2.044854 -2.019701 1.494204
0.000815 4.058244 -0.136409
4.116009 -0.132030 0.030432
-0.089239 -0.014258 0.130663
-0.030616 0.026405 0.094406
-2.031466 -2.020203 1.542629
0.119118 5.062301 1.530975
-2.210782 -2.059352 1.766315
4.107711 0.064922 0.052541
0.118932 5.002831 1.430793
5.060553 4.929511 1.440321
-2.068458 -1.932388 1.685329
-0.060913 4.109569 -0.011307
4.072538 0.040626 0.104881
4.896178 5.123933 1.510689
-0.181654 0.012052 0.019907
4.023064 3.995044 0.061020
-0.047820 4.059666 0.078130
4.989019 5.135576 1.490737
0.062793 3.886013 -0.043349
