0.023982 7.007514 2.063592
0.015616 5.019594 0.086992
-0.141401 4.932766 0.018471
0.148718 6.917051 2.008778
0.000180 0.044818 -0.043277
6.794689 6.988251 4.019728
5.157737 0.040203 0.060931
3.045075 -3.043519 4.057235
0.131990 4.937642 0.055116
0.140163 6.957624 2.275082
0.183972 -0.054587 -0.055237
6.896022 7.117223 3.916785
6.986650 0.052694 1.901662
2.859664 -3.048162 3.917562
7.046921 0.176925 2.029341
6.924029 0.092553 1.990974
-2.878265 -2.968880 2.040191
7.037668 7.164161 4.081477
-0.108546 5.005083 -0.110576
5.046807 5.069352 0.004668
-2.870423 3.100271 3.913768
-2.974996 10.006361 4.051161
5.119652 -0.065021 0.096291
-2.888293 9.945707 3.942653
-1.113863 -8.899003 -0.064201
7.052591 7.003764 2.006391
6.846396 0.019447 1.848122
4.968046 5.030151 0.070570
-0.094191 7.027857 2.002626
-2.927397 2.935047 4.072099
-3.102134 -3.041910 2.073122
4.959926 4.966123 0.113579
-0.051851 -0.104200 -0.087996
3.095652 -2.938652 3.930882
0.071631 0.059801 -0.043351
-3.160684 3.020380 3.990570
-2.889722 2.957107 3.826276
7.057384 7.112221 2.070405
5.050726 0.080740 0.055467
-3.022627 2.999250 4.076456
-0.030793 -0.011862 -0.151384
7.171019 7.047740 3.995699
4.954804 0.194319 0.002633
-0.001247 5.091593 -0.230813
-2.993273 2.965659 4.059076
2.820854 -2.946419 3.952968
-2.964954 9.865531 4.027432
7.009808 6.925728 4.025742
-3.087647 -3.125105 2.298147
7.024907 0.046380 2.014454
5.010862 5.019641 -0.141143
-2.875946 2.805937 3.937298
-2.997134 3.045148 4.148241
-2.814067 -3.048421 2.040620
6.930816 0.043702 2.019912
0.081773 -0.014806 0.010114
-3.060965 -3.170210 2.028390
-2.856207 10.102667 3.901818
-2.973774 10.169454 4.150260
4.999114 -0.080407 0.129304
6.968076 7.014927 1.982267
4.896087 -0.047447 -0.044110
5.133296 0.011901 0.031623
4.989128 4.994733 -0.088906
-2.884151 10.134247 4.060294
5.035572 0.051434 -0.122406
-0.050160 -0.022392 -0.107376
6.937011 7.132544 4.019923
6.967791 7.037704 2.118951
4.909399 -0.007922 0.028934
6.998517 6.907720 1.988109
4.877875 -0.015622 -0.060306
-3.069026 -2.943610 1.801613
5.052883 0.073577 -0.130932
-3.042065 -2.855709 2.001820
-0.148406 5.029572 -0.061335
5.022362 5.019028 -0.018136
5.071546 4.993515 0.074666
0.112252 4.902252 -0.090286
-3.016686 10.072422 4.015029
7.061950 7.038145 4.131981
4.991837 0.005361 0.009872
-0.027595 5.059393 -0.060616
-2.981459 -3.010895 1.913750
4.959180 0.014040 0.037827
0.076441 5.120788 -0.085541
7.015107 0.048834 1.764807
-0.129720 6.790304 2.037502
-3.093036 10.092568 4.090329
-2.894720 9.890545 4.097590
-3.000060 10.095780 4.083568
-0.023619 0.123392 0.125316
-2.976539 -2.995159 1.883608
-0.095357 0.024265 0.127694
-0.051176 4.996462 -0.010353
-2.906085 9.843714 3.899299
-2.979580 2.827294 3.812770
4.891667 0.033415 0.073327
7.044837 6.986215 1.962912
-0.090983 -0.056491 -0.066550
0.062675 -0.113399 -0.019821
7.004214 6.856043 3.977786
6.975419 0.080262 2.012185
5.098499 -0.074159 -0.061743
-2.926175 2.904222 3.916779
7.004520 0.085981 2.017395
6.990575 0.053939 1.887744
-0.143065 5.074016 0.064148
6.925699 -0.124865 1.982072
7.133771 7.066629 2.003193
5.022906 4.968613 -0.081006
4.964708 -0.115414 0.067231
0.025174 6.921249 2.140843
7.017241 7.051685 1.968099
-3.140340 3.051150 3.827981
7.114245 7.016783 1.910409
7.037775 7.033824 1.921774
3.000279 -2.978132 4.072863
2.929044 -3.025598 3.954702
7.112390 7.117789 2.034047
6.948724 -0.038097 2.039203
-3.081390 -3.044841 2.098694
5.002000 4.960864 -0.271482
2.887803 -2.995724 4.055520
2.973038 -3.149550 3.979624
4.930900 -0.112755 0.102155
6.954219 -0.070447 1.763034
0.006027 5.015370 0.032295
-2.934871 3.052417 3.923262
-3.020886 2.974125 4.004299
-0.016643 5.161931 -0.068365
-0.105158 5.026346 -0.104915
4.987206 -0.015339 -0.004424
-0.008834 0.058140 -0.095200
3.099782 -3.099994 3.921509
6.992270 7.034702 4.037910
-2.817454 -3.090095 1.975453
-0.060877 5.133100 0.130524
7.011096 6.950470 3.871992
-3.003347 10.118302 3.897374
-2.937457 3.138600 3.981151
3.047170 -3.092068 4.058901
6.919730 6.930358 3.896670
-2.757061 9.786116 3.928477
6.960123 6.943805 2.015629
0.019058 6.896047 2.111439
7.143666 6.903849 1.985595
0.115358 7.007022 1.934694
-2.932463 -2.946268 1.963829
0.098623 -0.021349 -0.104962
-0.077782 6.895335 2.034156
-0.051683 4.999847 0.078164
7.085860 6.930725 4.093378
0.019922 -0.066009 -0.031274
-3.022491 2.723831 4.077621
5.045134 0.049206 0.106275
0.742049 -9.372482 -0.037023
5.067765 0.050971 0.153275
-0.004341 4.943749 -0.016863
0.041351 5.012253 -0.030920
-2.907768 3.089222 3.809593
2.899943 -3.039470 4.092004
7.080022 0.021787 1.979122
5.012298 -0.059168 0.029312
7.065721 -0.103101 1.880388
-3.166046 2.795318 3.998914
7.060958 6.929977 2.047920
-2.835091 -2.938029 2.094895
0.042055 6.991952 2.081034
-3.003457 -2.948078 1.940344
4.818499 -0.050944 -0.091595
7.073638 6.995717 4.096879
-0.023246 4.928824 0.122954
-3.034954 2.880785 3.875434
6.995043 7.180097 4.040900
-3.077785 9.992229 3.868771
3.254637 -3.039546 3.921053
6.924403 0.113093 2.043063
7.028756 0.006999 2.086261
-2.974271 3.021769 3.898058
-0.183004 -0.080235 0.053212
-0.090842 7.060373 1.918107
7.097539 6.957583 1.925883
0.105683 6.932509 1.987556
-2.891837 -2.898760 1.868541
7.112317 6.960800 2.110697
-3.064525 10.129020 3.844889
4.869748 4.980742 0.125171
4.908246 5.029884 -0.008694
7.026477 -0.003857 1.962653
3.005053 -2.984696 4.032235
5.060351 5.040943 -0.011292
0.033034 7.094981 1.942284
-3.069285 2.910980 3.932986
-0.000467 4.982672 -0.013004
5.069185 5.031253 0.125165
0.012282 6.992327 2.134267
6.923597 -0.075335 1.925197
-3.095476 -2.958335 2.054235
0.032325 -0.007336 0.045649
7.036821 6.991729 3.965610
-0.039930 7.023714 1.813752
7.139071 6.915774 2.051988
-3.075859 10.050370 3.881030
7.004084 7.127680 4.006179
0.002343 7.077564 2.086108
0.098689 7.115332 1.981907
-3.324407 9.980442 4.059444
5.098246 5.019535 -0.038904
-0.201628 5.050530 0.056490
-2.717786 -2.965332 1.977150
-3.069965 9.928936 4.154614
-3.235355 10.093817 3.919464
2.909482 -2.954462 3.867726
3.101953 -2.924001 3.896353
0.054555 -0.071816 -0.001097
-2.986427 -2.869955 2.116897
7.033977 6.894841 3.996286
0.126832 0.200766 0.135883
2.931939 -3.080850 4.147157
6.979786 7.059905 2.166648
7.058171 6.903545 1.992189
-3.075797 3.031318 3.962736
-3.132933 9.808994 3.905833
7.051605 6.959993 1.946358
3.154317 -2.975409 4.095292
5.026145 5.021167 0.057483
0.068337 5.163922 -0.139619
0.163688 7.099569 1.917485
0.097644 4.940502 -0.095340
3.210033 -3.075726 3.931052
6.962141 6.903220 4.035937
-3.013115 10.119857 4.102567
3.013884 -2.854380 4.152291
4.961399 -0.012581 0.041457
6.969076 6.966102 1.844006
-0.021696 4.958335 0.158216
6.934580 6.833066 2.118702
4.940018 4.861405 -0.116040
-0.016668 7.020832 2.026881
7.101890 7.027992 4.068693
4.944110 -0.108340 0.052256
4.968440 -0.070647 0.059583
4.945170 4.995676 0.037367
7.094219 6.893098 4.079570
0.162762 0.143674 0.052800
3.051591 -2.906774 3.910132
-2.975882 -2.937623 2.070835
4.978921 4.989303 -0.104289
6.947510 7.035864 1.958592
-3.106821 -3.015636 2.077610
7.066826 0.130198 2.084830
3.158814 -3.074960 4.117651
-3.076003 -3.075580 1.914933
0.000778 4.924616 0.041021
7.005422 6.993275 4.170792
-0.194699 5.041541 -0.065305
-2.902488 3.082578 3.959943
4.903015 -0.013553 -0.039489
0.066025 7.150880 1.907771
-3.100904 -2.923280 1.962060
4.988616 0.067728 0.007097
4.938422 4.849223 -0.064233
0.065128 5.012110 0.146143
-2.919543 10.000872 4.048629
7.049160 -0.063232 2.132469
-3.098435 -2.931991 1.974453
-2.913867 3.002690 3.935754
0.138261 6.929627 1.763962
-0.004963 0.069868 -0.012035
2.937067 -2.964912 3.876136
7.111107 7.081616 3.851427
-2.867499 -3.060910 1.866896
6.880240 0.065634 2.032601
-0.052044 -0.091841 -0.065131
-2.969213 -3.026288 2.043563
-2.997953 3.087498 3.902930
-2.960165 -3.065816 1.925325
-0.116722 7.000112 1.838685
0.052791 -0.019794 -0.050524
4.939801 -0.079916 0.056404
7.118267 7.084329 1.843728
7.014191 0.034850 1.946285
-0.036012 0.104345 -0.041327
3.093983 -3.007049 3.827302
-0.095985 4.951526 -0.073431
4.924457 4.978532 -0.092688
5.033315 5.043395 -0.077531
7.003573 6.953004 2.064567
7.077823 6.938427 2.000082
-3.096738 10.056108 4.150431
0.040220 -0.144733 0.138698
-2.977623 3.117681 3.818814
0.064758 7.045361 1.892638
-3.032738 2.973428 3.912763
-0.016065 4.938329 -0.051430
0.037324 5.037893 -0.055258
7.038511 7.047500 4.045630
6.910395 7.002929 2.093609
4.969789 0.013002 0.024997
2.932051 -3.071161 3.990983
-2.751977 10.161596 3.954573
0.013625 0.010224 -0.008312
-0.005467 -0.021825 -0.025207
5.044763 4.830270 0.004495
6.989079 7.024452 1.909216
-3.034665 -3.091209 1.892394
-0.051231 4.980042 -0.057767
4.932647 5.016359 0.019747
7.014362 7.071652 3.890507
-2.932917 10.070091 3.878752
-3.017797 3.035209 4.017271
6.968811 6.997137 3.931269
0.050990 7.023871 2.020097
3.069010 -2.820004 3.975921
4.723338 -7.578562 -0.036236
4.881986 5.089515 -0.125908
-3.093082 10.147438 4.020811
6.954790 -0.040219 1.903083
7.106866 7.099947 4.087528
-3.026238 -2.918788 2.172522
0.045660 0.027803 -0.180285
2.902800 -3.063153 3.955040
5.026206 -0.117297 -0.019044
-2.810406 9.918973 4.079371
-0.011545 6.938999 1.799562
-2.918263 3.112917 4.003316
5.082685 4.883127 -0.010691
-0.054933 -0.023976 0.084525
7.140009 6.920353 3.882554
0.113673 4.872118 0.057032
7.051336 6.910992 1.951411
5.136975 0.182135 0.220655
-2.915240 3.067028 4.005797
-3.160114 9.852645 4.156342
-0.061365 7.065692 1.989812
-2.956621 -2.913739 2.077455
5.055250 0.024897 0.101217
-3.009892 3.105829 3.889281
-2.917190 2.994490 4.119108
3.010886 -3.064747 3.866366
7.048496 0.135482 2.113576
-0.056515 0.070745 -0.031297
6.981367 7.088063 3.934792
7.058581 6.974092 3.927934
4.930803 -0.048225 -0.067685
-2.961825 -2.792916 1.961360
3.079976 -2.946040 3.980388
4.971673 4.906212 0.062538
-2.734362 2.792235 3.977027
5.035373 5.009540 -0.057833
-0.047504 0.105795 0.016832
-0.050293 0.017364 -0.087101
7.024666 7.075138 1.990917
4.983097 0.063640 0.038982
6.900878 7.031939 2.139556
0.091476 5.026194 -0.040704
0.016907 4.965970 -0.027748
-3.055760 -2.964441 1.815232
-2.941489 3.146113 4.101236
2.831574 -2.790962 3.831620
-0.127987 5.171637 0.007828
-3.050407 3.117346 4.022645
-0.033604 4.902129 -0.050343
7.025002 6.933750 1.998730
0.005922 7.051813 2.013456
2.953290 -2.785095 4.096287
6.855991 -0.139575 2.131537
6.999952 7.006015 4.140267
-0.061003 -0.085431 0.130220
4.956143 -0.019146 0.089408
6.955818 6.991140 3.831059
-2.929339 -2.891358 2.033933
-2.936667 -3.035995 1.789058
7.180652 0.055496 1.947532
0.046536 7.007097 1.979573
4.977296 5.099207 -0.060383
6.955561 7.001883 2.012504
-0.022826 -0.048927 0.020575
6.934976 -0.001981 1.947453
6.968265 6.857944 4.081912
0.067721 6.988586 2.033117
4.800412 -0.084288 -0.143017
0.077107 -0.000424 -0.008629
0.031607 7.179828 1.932555
-0.088892 -0.139564 -0.024610
6.925458 6.873404 4.035258
0.070605 5.066527 -0.010609
0.105154 5.076522 -0.072274
5.057789 5.059558 -0.049293
6.941543 6.948838 1.893562
-2.937287 9.982869 4.030352
-3.057800 9.890842 4.011073
5.079030 -0.076495 -0.070445
5.126738 -0.038929 0.086842
6.964641 0.131198 2.104984
-0.053295 -0.087070 0.057460
-0.041449 7.025422 2.042046
0.047193 -0.130819 0.012684
7.059089 -0.183835 1.956566
0.136829 -0.095839 0.211430
7.039660 6.945768 4.022300
0.178438 5.180843 -0.088902
7.045998 6.978494 2.016885
3.024236 -2.918317 4.065200
3.107724 -2.861513 3.909608
-2.879099 9.998566 4.117761
2.910862 -2.966183 4.239618
6.969172 7.031906 4.069784
5.059061 0.052300 0.032053
-2.881410 -2.992882 2.133664
0.057121 0.092256 -0.124775
0.001930 0.077454 -0.139863
-2.876351 10.004640 3.989533
2.852665 -2.992150 4.050018
7.103035 0.049105 2.007696
-0.131521 4.971956 -0.062962
-2.970607 -3.096280 2.040736
4.882512 4.957884 -0.021593
0.041711 0.117362 0.100162
7.222945 7.005980 3.932175
0.239730 5.092306 0.042101
-0.089762 4.851753 0.112174
-2.918070 9.972842 3.848799
3.011192 -3.067593 3.932462
-0.109372 0.038086 -0.090585
-0.070163 4.819898 0.027321
-0.081137 7.113812 1.960739
-3.081350 -2.951056 1.889770
-0.098679 0.010365 0.033052
-0.062648 0.035801 -0.080529
5.103156 5.027409 0.004695
5.118884 5.068841 0.011935
7.099812 -0.078181 1.918820
-2.960266 3.039033 4.180151
-0.112425 -0.039612 -0.092593
-3.176745 -3.115800 2.180044
-0.110580 -0.069494 0.053618
0.065195 4.963982 -0.091263
0.137524 6.934639 1.860249
7.018276 7.057800 1.861984
7.047158 6.917849 3.872951
-0.088164 5.070106 -0.104729
0.131555 0.138331 -0.040379
-2.818135 10.078517 3.981319
6.944273 7.012922 2.031086
-2.926563 10.121060 4.068253
4.979503 4.971515 -0.044714
0.119214 4.967029 0.057322
5.122977 -0.046232 0.035640
6.988073 6.940201 2.029955
-0.122248 -0.106040 0.124651
7.128860 0.008486 1.997003
6.989278 6.988076 2.017437
6.830852 0.041938 1.905589
-0.049230 0.037273 -0.147314
0.094690 -0.089357 0.029690
6.980941 6.981422 4.130646
6.882175 -0.010524 1.942789
-3.188190 3.104322 3.995856
3.104306 -3.001663 4.073112
6.997103 7.118078 4.071778
0.097880 0.027407 0.104651
-2.867376 2.983352 4.056625
-2.991685 -3.044342 2.106880
-3.109741 2.801076 4.137055
-3.132355 -3.015074 2.136011
-2.978984 10.147083 4.117502
7.171532 7.064294 3.996707
-2.987878 10.145637 4.007937
6.979181 -0.021229 1.885028
0.035244 4.883912 0.065447
-3.050254 3.090665 3.951553
5.057227 4.836419 -0.023508
-3.035293 -3.068781 1.847506
6.969636 -0.015155 2.029041
-0.049635 4.914379 -0.056496
4.874505 4.908403 0.070105
-0.023880 -0.165549 0.079795
7.158286 6.922013 1.928858
4.952241 -0.041528 -0.141809
0.011460 7.094668 2.173732
7.096355 7.041466 2.008883
3.060994 -3.094251 4.062583
7.076971 6.929943 4.069094
-0.032720 -0.098768 -0.081931
6.938516 0.171005 2.059207
-8.399740 5.752869 -0.059099
5.012009 -0.053096 0.078098
-0.008850 5.157165 -0.000973
0.003906 6.998561 1.973346
-3.071627 3.133836 3.968808
6.963028 -0.115032 2.057767
3.028010 -3.094018 3.991131
7.006671 -0.152812 2.051545
0.088819 -0.054389 0.046861
4.932096 4.995700 -0.082251
0.066600 0.086005 -0.181225
-2.948679 9.890253 4.031463
0.021192 7.042971 1.918474
-0.073944 7.060969 2.032707
7.022890 6.902462 1.920648
-2.995862 10.021516 4.113412
0.061253 0.118062 -0.006745
0.042269 5.085680 -0.058253
2.943991 -3.009019 4.255703
-3.040268 3.041860 3.998810
3.095679 -3.129223 3.990674
6.939584 6.966616 1.971139
6.969810 6.872946 4.190174
3.146351 -3.108345 3.870159
-0.138788 7.020455 2.088578
-0.086155 7.006847 1.889216
-3.046158 9.913902 4.085078
5.091596 0.006412 -0.077107
4.946166 5.106981 -0.015222
5.034128 0.067385 -0.005497
7.103678 -0.049958 2.024880
-3.024999 10.015057 4.279909
-2.836987 -2.995816 2.013304
7.129795 7.131830 2.085763
-3.191674 10.049788 3.947616
5.117980 4.931518 0.066009
6.922196 6.912119 4.032167
-3.114015 9.949736 4.069886
0.034431 4.992927 -0.008385
4.958749 5.040974 -0.034080
0.079212 5.021528 -0.027658
6.984162 -0.009752 2.065921
-0.059357 5.058438 -0.004055
5.072019 0.034111 -0.044198
4.833269 0.099487 -0.108425
-2.974878 -3.034585 2.027180
0.071913 4.933448 0.030289
5.035378 5.055500 -0.116163
-0.191985 6.953826 2.051311
2.905767 -2.752192 3.982505
0.047570 6.958128 2.038819
-0.026236 -0.078565 0.031939
-2.941376 2.839317 3.968491
-0.089666 -0.164671 -0.011799
-3.016797 9.903882 3.912315
6.921029 -0.156931 1.961065
3.095685 -2.999739 4.134054
4.874619 -0.024261 0.094002
0.075284 -0.030441 0.151988
6.926138 7.010749 4.070182
7.031561 6.824162 4.175429
6.963554 0.096111 1.982674
7.059622 -0.095634 2.013232
-3.067233 -2.865197 1.994650
-3.097986 3.072351 4.152383
6.894300 7.088859 3.844668
6.898904 7.053307 1.965310
4.951756 -0.003665 -0.155006
6.933495 7.116845 2.034464
-2.946980 2.835003 3.824487
2.919801 -3.181694 4.000600
4.888159 -0.027885 0.001058
7.005545 6.929801 1.963571
0.103081 6.927314 1.974978
-0.058496 6.886915 1.972627
-2.844140 3.008674 4.095479
7.094412 7.021762 4.074449
-3.020874 -2.947147 2.002114
-2.973065 3.061565 3.875495
7.078491 0.110587 2.073213
-0.028085 6.890596 1.993994
6.859053 7.064361 1.989868
-3.099203 9.996325 4.058923
5.033813 0.070436 -0.162963
-3.019153 -2.898543 2.059089
0.025640 6.973101 2.001057
-2.985601 3.174967 3.888817
-3.086459 9.913201 4.006806
6.828920 7.095684 1.909613
5.073527 -0.085364 -0.140121
-3.078116 10.045409 3.948780
7.027679 7.047250 1.964095
7.013668 -0.112451 2.058276
6.964013 -0.121677 2.072647
6.969424 0.021710 2.131990
2.877452 -3.032461 3.990789
-0.111322 4.990702 0.129631
-0.022010 4.830748 0.092187
7.002336 6.828694 4.105477
2.765358 -2.973975 3.989005
3.020330 -2.899096 4.049102
0.149850 0.167305 0.035874
-0.024915 5.262380 0.065799
-0.153423 7.076451 1.928491
6.838763 -0.152985 2.093320
2.939674 -3.070700 4.081496
6.996959 -0.035058 1.999564
-0.095372 -0.046235 0.019805
7.108036 7.005199 1.915643
-0.047266 4.773006 -0.047596
-2.901212 -2.910921 2.029452
7.155620 -0.113832 2.030383
6.902932 7.083208 3.956617
-0.121909 -0.000566 -0.009067
-2.846732 2.883813 4.162909
-0.032670 5.015919 0.119289
-3.031697 9.914531 3.924690
0.026880 -0.058232 -0.057681
-3.066938 2.857797 4.036554
7.008798 6.989782 1.942727
0.186160 0.068857 0.037037
6.988665 6.822546 4.055038
3.066103 -2.982359 3.954082
-3.012340 10.158302 4.106790
5.083845 5.061612 0.101256
4.939245 0.012455 -0.098074
5.016171 5.125248 -0.042599
7.062576 -0.069660 2.050820
5.045528 0.012440 0.121901
-2.835742 9.998306 3.801265
7.208065 6.772734 3.951797
-0.004901 6.848789 1.935819
5.077082 0.028845 0.104668
0.063161 7.081542 1.951041
4.963577 0.020540 -0.059206
6.837579 6.925328 2.024188
0.175939 5.084318 0.157326
5.078235 0.109126 0.070565
-2.856000 3.094504 3.984344
-3.056375 9.996276 4.300976
7.021668 6.989473 1.951079
7.108923 -0.085204 1.995925
-0.015072 0.035402 0.049615
-2.861723 3.144920 4.064363
7.104947 6.973753 4.044150
0.020733 5.112865 -0.065666
-0.032228 4.993351 -0.007396
-3.052193 -2.997897 1.971534
-0.079608 4.998519 0.026870
-0.141908 4.933385 0.086060
6.935246 7.095909 4.066840
-0.127167 0.017151 -0.089466
7.074297 0.013011 1.892910
4.956878 0.088524 -0.155304
-3.086227 -3.150240 2.005350
7.132447 -0.062961 1.984309
6.953457 0.128983 2.076801
-2.975387 10.210479 3.946135
-2.905845 2.943894 3.858832
-2.934939 9.996477 3.943063
-3.080456 10.161110 4.075138
2.962932 -2.900378 3.954193
4.974015 0.042318 -0.260710
-0.015349 6.986841 2.079374
-2.857456 -2.945887 2.006226
7.162966 6.997154 3.948981
-2.959417 10.121423 4.004092
-3.000021 3.032969 3.831928
4.900512 4.872493 0.008725
7.044597 7.032691 1.932130
5.031557 0.114060 -0.006805
7.164799 0.101747 2.092118
6.914921 -0.118499 2.040207
-0.002232 4.915635 -0.026137
4.958143 4.964775 -0.016505
-2.887387 -3.146335 1.920069
4.998154 5.020236 -0.006673
-3.153875 10.032542 4.016417
-2.956581 -3.027773 2.102003
-3.087499 3.005069 3.835675
7.003755 7.044235 3.878400
-9.163058 -9.411099 0.001020
6.974568 6.976827 1.975457
-3.046704 2.833266 4.023584
-0.041043 5.056739 0.013049
-3.124297 2.806261 3.775040
2.905849 -3.084869 3.892154
0.157676 4.977472 -0.227013
4.845234 -0.061689 -0.022406
-2.823283 2.875770 4.004916
6.858510 6.833808 3.985881
-3.027764 10.017707 4.268825
3.099743 -3.099947 3.787161
-0.025599 5.065724 0.003637
3.104007 -2.888946 4.110373
2.845889 -3.131092 4.051273
-2.863770 3.165231 4.205707
4.988182 0.012968 0.029447
3.142750 -3.052624 3.984057
-0.127353 -0.001524 0.137631
-2.876853 3.013493 3.955349
0.102106 7.003804 2.115096
6.961185 6.903796 2.056631
-3.017980 2.919570 3.995040
7.038621 -0.155621 1.983677
-6.977790 3.961040 -0.022360
7.157321 -0.052639 2.024329
-2.973275 -3.046056 2.036546
7.021757 7.082852 4.004311
-0.132687 4.942870 -0.101563
0.034455 5.091103 -0.049107
7.038888 7.004680 2.011310
5.068110 5.162731 -0.051878
0.144035 6.994931 1.994473
-0.069203 -0.064985 0.089879
6.838625 6.954087 4.122266
0.004150 6.863736 1.927141
6.967094 7.060536 2.043941
6.997261 7.105320 4.066349
0.063100 -0.113244 0.061854
0.007783 5.084896 -0.020535
7.017518 -0.042236 1.872525
7.051809 6.805852 3.934953
3.181584 -2.954753 4.005807
-3.044186 3.070353 3.813383
-3.050458 3.149998 4.002790
5.080102 5.043483 0.076324
-3.108441 9.848249 4.028580
3.017137 -2.923052 4.021171
-2.962919 3.123325 4.171696
0.019359 7.015388 1.833512
-0.022970 7.062849 1.931390
2.810205 -2.740118 3.936827
-2.965568 -2.918376 1.958908
7.060519 0.046727 1.928808
7.066507 6.894291 2.168834
7.041139 7.049843 1.935803
7.076812 7.077381 4.052440
6.934775 0.078015 2.041858
7.246791 0.030653 1.893251
4.999735 5.031998 -0.057623
-0.161070 7.092935 1.958161
2.988147 -2.992467 3.971498
0.036386 7.013746 2.009705
7.015016 0.061143 2.015542
-0.015260 -0.029711 0.045122
5.059644 5.100006 0.090115
-3.140808 10.076148 3.871588
-0.051433 -0.045923 -0.015122
4.982763 5.026555 -0.043433
6.992781 -0.074328 2.123826
7.024038 7.151572 3.891513
-3.031209 -2.871760 1.997789
-2.979056 9.897352 4.016792
-3.082754 3.124394 3.999000
-0.090679 7.068838 1.953022
-2.962300 -2.995636 1.975213
5.006823 5.167787 0.028558
-2.888036 -3.029329 2.040953
3.014268 -3.018928 4.073909
7.083496 7.101613 2.204761
6.950489 6.981613 4.106714
7.042576 7.024585 2.156799
-0.042866 7.025114 2.050247
0.051311 6.977460 1.797253
6.945142 7.007604 1.894032
6.915649 0.024872 2.022054
-2.902336 2.975508 3.872713
6.973422 7.094714 4.018272
-0.013993 7.002597 2.046028
-2.889764 10.153506 4.149557
6.956677 0.045925 2.009667
7.165591 7.045097 1.942035
6.909390 6.964205 4.030216
-0.006447 6.971465 1.966116
5.016370 4.973586 0.012079
-0.195758 6.986581 2.097759
-2.908322 2.999774 3.971388
-0.055437 5.186863 -0.002103
0.065713 0.049535 -0.140857
-3.127634 9.831241 3.958055
2.943507 -2.994972 4.079344
6.958584 6.890383 1.975517
4.998700 0.052883 0.055671
6.834297 7.024251 3.989321
-1.850467 0.766797 0.046006
-0.053498 7.185068 2.061042
7.069998 0.136053 2.016207
-3.181786 2.914737 3.915338
-0.013113 5.170548 -0.029481
-2.858869 3.020877 4.111330
4.955188 0.018290 -0.043674
-3.080095 -2.999866 1.989792
3.055303 -2.937786 3.992807
0.192454 6.990426 2.014070
-0.079939 -0.050912 -0.059901
-3.032682 -3.080087 2.096856
-0.060172 0.235305 0.022330
5.019565 5.095927 0.014897
3.006434 -2.968274 3.838954
0.069738 4.778251 0.005254
6.881706 -0.063472 1.909904
-3.127936 -2.919714 1.855724
7.118673 7.130570 4.008387
-2.929969 -2.890805 2.156409
7.154114 6.880314 3.825689
6.983551 6.907504 2.014826
7.024724 7.061290 3.878655
-3.020774 -2.958471 1.924345
4.979916 4.971871 -0.037787
-0.160611 4.949065 -0.000202
0.056003 6.988389 2.031247
7.073713 6.998206 3.962430
0.050626 7.016144 2.033161
0.046731 5.010426 0.019384
-3.074075 3.076535 3.898804
5.084985 0.025371 0.071726
0.003020 5.103835 0.036592
4.909789 0.010491 0.043771
3.035371 -2.964322 3.858216
-3.040535 -3.015270 1.996112
4.973091 4.907845 -0.028944
7.049540 7.068127 3.995560
7.118503 6.860647 3.947104
0.120238 0.026328 0.104951
5.026982 5.000744 0.006385
0.061541 6.944007 2.082226
0.012188 4.923626 0.125827
2.916704 -3.274898 3.925031
7.051407 7.018635 4.136389
0.066918 5.061266 0.007155
-3.019295 10.058213 3.929564
-2.813270 3.044326 4.145545
-3.035148 2.931745 4.155836
0.007125 7.010792 2.034475
5.176295 0.012471 0.028767
-2.925676 3.193533 4.050358
-0.095254 7.012429 2.062626
0.076832 0.001449 0.035950
7.027648 7.080287 1.979031
4.871622 -0.027330 -0.028583
-3.056110 9.912096 3.873421
-2.843999 -3.163525 1.896807
-3.179817 3.023627 3.830388
7.076100 6.854966 2.020724
7.018508 6.883597 2.077726
7.039717 0.162427 2.004209
7.055943 6.963658 4.013816
-6.280256 3.429460 0.011848
0.043753 7.012733 1.995721
2.865128 -2.934701 4.003284
0.124530 4.946086 0.037817
0.126362 -0.037893 -0.031130
4.979840 -0.085103 0.057865
-2.952642 -2.940807 2.003084
0.012641 -0.003789 0.046139
0.083932 5.123072 0.058013
-0.054128 7.103410 1.932296
0.146610 5.152417 0.048057
-3.118900 2.857920 4.065317
5.055658 -0.009566 -0.026182
7.024391 7.099054 3.948557
-3.020068 -3.148774 1.874248
0.077869 0.108703 0.073573
-0.002789 -0.118727 -0.033844
5.009485 4.991076 -0.087882
-0.119123 6.988246 2.100598
3.231292 -2.996842 4.091600
6.966905 -0.096303 1.869069
5.003832 5.058823 0.006707
7.083047 6.869081 1.782160
4.969138 5.029159 -0.086528
0.190611 4.943406 0.013397
4.941379 5.085985 -0.113228
-2.901641 -3.091043 2.039270
-3.070074 9.743762 3.905350
-3.127261 3.062268 3.957417
5.017924 5.118125 0.087360
6.967758 7.085179 2.039469
0.036528 7.086470 1.848136
5.127274 5.104666 -0.010758
7.107575 7.012612 2.056568
3.248095 -2.892980 3.965176
4.839968 4.995364 -0.055661
4.920573 4.908302 0.122052
-0.059271 6.996218 2.069315
-0.045145 7.043695 2.046770
4.922321 4.967398 -0.070989
7.002030 7.017913 3.917953
2.983152 -3.033683 3.926727
-2.944411 3.110251 4.022098
-0.183427 5.143002 0.009336
0.022711 7.068174 1.921019
6.887647 7.086314 3.843706
-0.021301 4.968370 -0.047103
0.019589 0.075063 0.023827
-2.961651 -2.883806 1.979144
4.968926 0.021022 0.074538
-2.928202 10.150341 4.006607
0.027645 4.897537 -0.062337
4.922699 5.026756 0.022250
-3.014244 9.883238 3.975001
-3.074347 2.854255 3.984801
3.141927 -3.074125 3.941145
2.907112 -3.100522 4.045722
-2.936272 10.007096 3.968587
-0.068090 7.108634 1.881546
7.107934 0.054496 2.126072
4.948419 5.065073 -0.118797
-3.096455 -2.897324 2.081225
4.997177 0.071301 -0.152583
4.807254 0.007016 -0.038096
6.919666 7.079906 4.073464
-0.155838 4.963980 0.118311
-2.982239 2.977683 3.889823
-3.049933 -2.964833 2.087586
7.025315 6.756219 2.043082
0.028445 7.068235 1.988756
2.929402 -3.113333 3.918014
-2.997279 9.914802 4.340661
4.953212 4.822873 0.040517
2.883574 -2.970049 3.929307
7.050804 -0.015577 2.009391
6.836509 7.101294 3.946422
-3.061433 -3.008568 2.025096
-0.058331 7.194912 2.025369
-3.100330 3.211990 4.028581
-3.042171 2.933228 4.171693
4.991893 5.034740 0.020685
-3.058473 2.952543 4.104841
6.990526 6.995198 2.086744
-0.007571 4.899764 0.021924
6.789082 6.876621 4.056623
5.101903 0.033719 -0.000687
-3.006488 3.086846 4.048003
7.152775 7.052800 4.059318
-0.009238 4.884378 -0.005315
-2.981472 -2.972932 1.996760
-0.000423 -0.062947 0.029622
7.052396 6.933149 4.023541
4.926671 0.131392 -0.072801
-2.875280 2.888720 4.097683
-0.138332 -0.065092 0.039261
0.051449 0.199489 -0.038201
6.959388 7.020554 2.021099
4.821474 -0.085675 0.093866
-0.125243 4.997653 -0.062815
0.000532 6.839352 2.001873
4.984345 4.872949 -0.108892
0.109442 6.852765 2.001524
2.871615 -2.760000 3.920730
-3.108119 -2.756804 1.779268
5.122838 4.930025 -0.069581
5.033463 4.943773 -0.091313
-0.015418 5.137377 0.010610
0.025245 -0.062299 -0.008117
-0.026743 7.013905 2.021717
0.020274 7.155860 2.126860
-2.885146 2.929390 3.959911
3.151731 -3.233496 4.021255
-2.999334 3.096601 3.957282
-2.980128 -3.074987 2.072845
0.062418 7.013721 2.011798
-3.006861 -3.073108 1.962819
-2.984875 2.855990 3.977756
-0.137921 4.994385 0.072598
5.057209 -0.100126 0.027619
7.101995 -0.011465 1.993013
-3.025948 -2.886726 2.082598
-0.038567 0.032567 -0.103820
4.909263 4.907132 -0.122310
5.258591 -2.441625 0.049970
-3.050329 9.882369 3.878374
-0.001349 7.067178 1.954561
2.946138 -2.993553 3.863834
0.009878 0.047560 -0.020613
-3.155042 2.980974 3.826675
-2.908990 9.931417 4.025833
4.912961 0.025691 -0.025331
0.154915 6.908909 2.040271
0.040647 -0.137883 0.095986
7.171068 6.939710 3.951001
-2.909682 9.904095 4.016291
0.154535 0.065996 -0.096672
0.077600 7.057611 1.978206
6.993963 6.836590 1.876165
6.954684 0.023045 2.116809
6.977728 -0.094431 2.213655
-9.060338 2.825752 0.066440
6.897166 -0.020617 2.008842
-3.038568 10.009642 4.014844
0.063784 -0.093395 0.202472
4.952662 4.824496 -0.112249
-3.042060 2.784768 4.083400
7.080167 6.952164 1.989342
7.113087 7.206223 2.060922
-2.943602 9.856966 4.064680
0.039989 4.950759 0.073085
-3.004983 -2.990559 1.905885
-0.034849 0.141206 0.065433
2.857133 -2.954139 3.944982
3.012321 -3.011585 3.885141
-2.989902 2.946415 3.899220
0.059043 0.024925 0.017773
3.013808 -2.997612 4.124848
4.956298 0.002500 -0.176660
-2.924737 -3.140946 1.971638
0.015018 6.946897 2.095169
0.118209 -0.101196 -0.010446
-3.026974 2.927232 4.007301
-2.977142 3.038429 4.034066
6.994783 6.982724 3.980430
-3.006938 2.919646 3.871728
-0.039729 -0.060327 -0.023740
6.947600 6.865757 1.953262
5.114164 0.011378 -0.168619
-3.015127 -2.975687 1.954635
7.090273 0.077302 1.913296
-0.034649 7.009902 1.990627
2.859016 -2.926086 4.121462
-0.037200 -0.076070 -0.054590
0.154656 0.009992 0.069508
0.050993 0.002320 -0.037430
-2.921869 -2.983105 1.955208
5.056035 0.019293 -0.063394
-0.172470 6.981218 2.046342
-3.095607 2.966096 3.935768
-0.048525 6.999848 1.848796
0.048319 7.009270 2.064616
0.029661 0.061761 -0.033260
-2.763240 -2.996743 2.079244
-2.952597 -2.969570 1.999589
4.902315 4.927424 0.081442
7.057952 0.112646 1.975337
4.995764 5.023514 0.064404
-0.099075 6.937564 1.898103
4.861024 5.185312 -0.079496
-2.968536 3.030188 3.899571
-2.897741 -3.087625 2.071891
6.833955 6.961315 1.942481
-3.015096 9.833189 3.952518
-2.884399 -3.158585 2.021734
7.072219 6.933565 2.075708
-0.072997 4.959899 -0.060760
-0.033153 0.071859 0.237085
6.892227 7.058236 4.048432
2.879160 -3.090148 3.942046
-0.059151 -0.041371 0.036847
7.178551 7.031519 2.007090
7.035845 -0.052442 1.948758
4.959433 4.986613 -0.036567
0.028887 -0.000344 -0.094089
-0.158666 0.068032 0.125483
-0.140305 0.086139 -0.051367
0.010567 0.192780 -0.073728
-3.068506 -3.179189 1.968737
7.026685 6.967166 4.122616
-0.090975 4.926972 -0.062940
0.133447 6.948927 1.974637
4.999700 0.061042 -0.021524
6.957613 7.158413 3.972720
5.026240 4.946889 -0.024350
0.128060 7.003248 1.934212
6.867300 7.075419 1.911798
-0.079404 4.995626 0.161475
0.093953 6.937516 1.913269
6.943198 7.077018 3.997466
2.967887 -3.097799 4.060471
5.187404 -0.197859 -0.047706
-2.926810 -3.044603 2.201104
6.997180 6.976977 2.059644
0.081101 4.870808 -0.114479
0.075738 4.860348 -0.111239
0.138360 0.172352 -0.008874
0.046551 7.148336 1.856459
4.839266 -0.027738 0.017538
5.039641 5.049743 0.027186
-0.092784 0.041853 0.029028
7.013575 6.914540 4.082967
-2.930282 3.167966 4.182993
-0.007550 5.086476 0.077574
7.145156 6.941757 4.145116
-3.001133 -3.019537 2.126165
4.836375 -5.375010 -0.008549
2.916620 -3.107241 4.032026
4.935344 -0.037079 0.028664
4.996385 4.958293 -0.025753
7.048318 6.904153 1.953566
5.018171 4.944356 -0.038162
3.085488 -3.105772 4.089044
-3.034452 -3.082917 2.111139
0.086353 6.950467 1.984082
5.047596 0.022911 0.048324
0.106791 -0.045766 -0.119886
-2.887230 10.062128 4.123220
5.053391 -0.010975 0.013301
-0.109575 6.980586 1.998037
-3.063752 -2.972701 2.009269
5.131317 4.942178 -0.054034
2.901068 -3.069493 4.133233
0.014848 -0.183876 -0.005414
7.054686 6.964814 2.040523
0.067886 6.897199 2.007722
7.048900 7.000707 4.020799
0.113568 7.040787 2.208670
-2.884109 10.090581 4.054009
0.109868 7.059527 2.242222
7.055817 7.081133 3.961100
0.042233 7.004121 2.019143
4.945375 5.080168 0.015121
5.088673 5.177492 0.093361
-0.073255 5.118620 0.080499
-2.992111 10.018192 4.003297
7.262933 7.041698 3.872789
-2.979748 9.801515 3.956312
0.133912 7.079838 2.074663
5.004982 0.020944 -0.029370
3.098872 -3.036249 4.030247
4.836477 -0.005984 0.039463
5.091248 0.095600 0.160091
-0.037385 -0.010177 0.164973
5.096226 5.100922 0.051259
-0.030872 5.067721 0.062458
-2.924965 10.113600 3.880229
5.037217 5.026761 0.065129
6.941728 7.038763 1.908296
-2.744284 2.820087 4.039151
2.945752 -3.048288 4.040633
5.175424 0.055639 0.118500
5.001737 -0.190008 -0.129510
7.132280 -0.029785 1.821704
0.079534 4.888741 -0.011264
6.969757 7.249932 1.995811
7.132897 6.918524 2.039548
3.040485 -3.224647 4.003082
0.018796 4.847480 0.131242
4.990953 -0.018382 0.017708
7.022615 6.947667 3.892951
7.044365 6.978630 1.976236
-0.063796 7.104901 2.016649
0.033400 7.013443 2.113742
5.080316 0.010654 0.071245
-2.973183 9.837746 3.942112
2.888776 -2.896179 3.831289
-3.023778 2.849985 3.970728
-3.034041 10.032522 3.820220
5.109046 0.019418 0.086816
6.954557 6.963695 1.936058
-0.030408 7.013084 1.935535
4.891071 5.121409 -0.128898
7.098267 6.819363 3.985338
7.105890 7.095664 4.006925
7.045840 6.916176 4.141061
2.994749 -3.005723 4.107672
-0.103282 -0.139875 0.204312
-3.023544 -2.920745 2.000548
3.046458 -3.111151 3.917989
-2.972780 2.782480 4.084530
5.130760 0.053147 0.015934
5.020229 -0.008766 0.045909
0.023607 5.145147 -0.021631
0.123332 4.956099 0.059106
4.919876 0.071805 0.014009
6.783169 7.018698 4.038301
6.964193 6.874081 1.979715
6.997236 0.034350 2.026804
7.065463 7.061366 2.133619
0.000896 5.086795 -0.036484
3.077904 -2.929233 3.911506
7.010923 6.977691 4.011733
-2.996350 10.054048 4.033413
6.971732 -0.055807 1.957570
7.017370 6.972452 4.019812
5.088585 4.935236 0.018951
-2.879996 -2.989483 1.981629
7.110681 7.149543 4.101831
2.885100 -2.940179 4.121542
-0.085208 6.883256 1.976595
4.830777 0.014660 0.051433
0.053297 5.000287 0.005433
-0.027393 4.931052 -0.136550
-2.893136 -3.027844 1.964312
6.957911 7.004182 4.126724
-3.030809 10.101021 3.941120
-0.014306 -0.173083 -0.116894
7.017977 7.064495 1.971518
-2.790868 9.990739 4.017898
-3.065438 10.024444 4.021829
7.034580 7.005517 1.997678
6.991108 6.971859 3.948134
4.955965 4.925067 -0.009040
-3.018490 2.967374 4.008136
-0.055936 4.939082 -0.048677
6.906516 7.065828 1.980570
6.890881 7.092974 1.977874
7.108930 -0.089106 1.929613
-2.989880 2.988144 3.978207
7.032019 6.888298 2.081129
-0.194412 6.907030 2.081098
5.031456 -0.061513 0.004481
5.086525 5.193990 0.130234
-2.988286 9.861022 3.936654
-3.037606 3.123294 4.118560
0.078088 -0.165305 0.017227
4.970393 0.043491 -0.036874
-2.946472 -2.825275 1.934413
6.996879 -0.079478 1.815124
0.093738 0.021991 -0.046958
5.090262 4.811643 -0.158098
7.099608 -0.033197 2.085916
-0.107771 7.017769 1.979812
3.019573 -3.143079 4.137780
0.053964 5.076612 0.040738
0.059431 4.921621 0.148625
-3.140646 3.126035 4.100004
4.994749 -0.027147 -0.153012
-2.937056 9.925176 3.940415
-2.802454 10.073098 3.855773
-3.037986 10.177500 4.023985
2.981010 -2.874707 3.984063
6.900667 6.947730 2.033499
5.073536 -0.135578 -0.125159
5.004324 0.062217 -0.014842
5.111431 5.126126 -0.087747
-3.009415 -3.078779 1.934738
-3.047237 9.900215 3.940626
5.028509 0.006395 0.015647
-2.983595 9.856293 3.856137
4.853890 4.959161 0.065026
-2.832005 3.023940 4.099469
5.082358 4.995489 -0.005543
-0.025604 -0.051027 -0.022821
-0.146166 0.020589 0.085749
3.129803 -2.956158 4.019908
7.039738 0.028013 1.896776
5.014145 4.915065 0.035934
-2.953575 10.059113 3.927737
6.952389 7.067863 3.987413
-3.235410 3.033701 3.815257
7.125541 -0.058400 1.995629
-0.125931 5.049425 0.044745
5.152336 5.116265 0.070177
5.049038 0.169012 -0.014447
0.126267 4.913178 -0.009349
6.969978 -0.254560 2.140981
-2.840105 3.113020 4.065163
4.856824 -0.044684 -0.123076
3.133921 -2.783886 3.996448
-0.164807 -0.062143 -0.075008
0.171716 6.975753 2.094590
5.174205 0.173878 0.001310
-2.951777 -3.075826 2.052606
4.958903 5.007490 0.059430
3.129475 -2.952840 3.989729
-2.951465 10.046512 4.162258
-3.097515 -2.897684 1.848584
-2.977504 2.800147 3.992808
0.057057 0.117708 -0.026349
-3.179056 9.945695 3.902180
7.122321 6.978458 3.979456
5.111234 5.086981 0.046118
0.097518 0.203453 0.066022
-3.066339 2.929436 4.202199
4.950145 4.956598 -0.062283
5.135703 -0.009899 0.193110
6.909032 6.911090 3.901806
6.919413 -0.029811 1.998145
5.038633 4.971943 0.043800
6.944905 6.868019 3.974392
-3.011176 -3.076140 2.183574
0.124109 6.929574 2.024060
-0.067952 0.016247 0.036344
-3.067672 9.797275 4.066579
7.095733 7.017336 2.153666
-0.048217 0.105137 0.080361
5.072641 -0.009386 -0.061858
-3.053779 -2.935072 2.082096
-2.956461 9.928448 3.924334
-0.045846 -0.031885 -0.099771
5.030710 4.945346 0.001996
-0.029141 6.808317 2.016333
7.028054 7.031345 3.854731
4.988117 5.010801 -0.021787
-2.938272 10.070211 3.980783
-0.205623 6.983275 1.965470
-3.005664 -2.821271 1.984038
-3.001991 -2.832420 1.953852
6.992210 7.182225 2.100675
6.947881 6.916571 1.999925
4.988901 0.137356 -0.066079
0.004111 0.093725 -0.054699
5.062271 5.168643 0.018206
-3.001219 9.974075 4.040986
7.038152 0.162988 2.046366
2.984574 -3.040198 3.923368
0.154341 7.008213 1.994926
-3.025428 10.035521 4.052388
0.080575 0.086257 -0.050569
5.018701 0.142133 -0.033000
0.003846 -0.073813 -0.090545
4.943851 5.103551 -0.143208
4.921793 0.014922 -0.032386
0.242310 0.098217 0.137389
-2.938763 2.814035 3.966730
7.095234 0.124710 2.011651
-0.004808 -0.070145 0.096584
6.982145 6.954045 2.120311
3.051196 -2.960145 3.990929
0.058729 6.949594 2.167230
5.056529 -0.030650 0.065760
6.945521 -0.023781 2.018503
-3.057258 3.001224 4.032062
-2.909222 2.870020 3.940420
2.986755 -2.928308 4.018020
0.044157 4.922568 0.017919
5.020505 0.044522 0.027563
-3.144781 2.896191 3.993705
0.126807 6.973841 1.982035
-3.026625 -2.923132 1.941703
-2.944139 3.014175 4.076873
7.048168 6.919513 4.008072
6.944091 6.796686 4.094252
-2.926910 2.850969 3.763548
3.411339 9.193045 0.014145
3.098573 -3.040123 3.985819
-0.015258 -0.009273 -0.012017
6.935457 7.059335 3.872151
-0.033294 -0.049226 0.005613
6.974111 7.025128 1.992424
-2.912021 2.987146 3.797090
2.990500 -3.013650 3.911612
-0.095171 0.093587 0.001714
7.055176 7.147895 4.020476
-0.124927 6.943119 1.870904
7.021038 7.077550 2.152330
0.232357 5.105611 0.011527
0.021547 5.021365 0.043798
-2.584200 4.480178 -0.039199
6.995509 6.924358 1.918831
6.970231 6.964341 4.030621
0.077844 5.158998 0.017641
-0.053067 0.083278 -0.045451
-0.087059 7.058149 1.965028
0.107105 6.972709 1.968251
-0.013134 6.984697 2.074734
-0.002027 4.972278 -0.043106
2.868556 -2.934576 4.071783
-3.089766 3.045957 4.052949
-2.976436 3.171003 3.994093
-2.778763 3.108461 3.983205
6.992442 0.026531 2.019033
0.189480 7.040999 1.961869
7.102408 6.941911 2.112132
6.788591 7.066334 3.965276
-2.984129 10.147312 3.941836
-0.013703 -0.061060 -0.064838
5.136306 -0.176543 0.071626
3.037649 -3.196375 4.011990
-0.152384 5.047792 0.089358
3.081398 -2.877037 4.082541
6.921622 7.071203 1.891979
4.834840 5.160662 0.003740
5.022186 -0.002146 -0.028028
-0.051322 4.881872 -0.154895
-3.004045 9.925947 4.176897
-0.233258 4.962436 -0.033699
7.045704 7.046547 3.913045
0.052668 4.986017 0.079297
-2.979753 2.993006 4.144275
0.111755 5.079271 0.003737
6.940843 -0.199802 2.118307
7.040448 6.931244 4.014685
6.841540 6.892004 1.867908
-2.799151 -2.923646 1.934581
4.976815 0.000616 0.003700
-3.085400 3.023536 3.888695
4.986134 0.022559 0.110201
4.967806 4.953667 0.057910
-0.026183 5.047061 0.103218
6.977462 7.056667 1.930119
7.020179 6.997298 1.901453
6.956349 7.045747 3.863200
5.068036 0.079495 -0.219029
-0.044102 5.063123 0.065203
4.883451 -0.022903 0.127038
-3.191698 10.018185 4.113412
0.022915 7.150532 1.919438
0.111191 -0.019768 0.194049
-3.014329 -3.076701 1.987541
-0.039949 4.989351 -0.069821
4.972131 4.946281 0.019426
0.040023 6.910853 2.045210
5.025838 4.995603 -0.007849
3.043181 -3.131642 3.976399
-0.051012 5.005538 -0.045737
7.039202 -0.094428 1.976744
2.954327 -3.049039 3.947162
0.153320 -0.135182 -0.040844
6.953402 -0.033301 2.102297
6.902342 -0.010262 2.015510
6.942339 0.030485 1.852754
3.112723 -3.057658 4.021651
-2.922004 -3.027840 2.003205
5.039905 -0.168500 0.007164
5.085304 5.075979 0.009821
0.134735 5.131674 -0.029397
4.921974 5.077287 0.142109
6.958076 7.037929 4.084769
0.038261 -0.012930 -0.087396
-3.265595 3.013579 3.756327
4.970355 4.958476 -0.160435
3.128824 -2.883092 3.856537
3.038451 -2.940936 4.057130
-3.018034 3.163797 4.019575
6.958713 7.013391 4.107133
-0.079043 -0.002781 0.052727
7.150128 7.050789 2.024926
3.050739 -3.022540 4.001509
6.938503 -0.025700 1.933819
6.883701 6.870206 4.038713
-0.015368 -0.251655 -0.011624
5.116148 -0.038009 0.008300
-2.857825 -2.953833 1.937177
0.043397 4.978440 0.143286
-3.033135 -2.786518 1.902726
3.001680 -3.040348 4.032189
5.020457 4.801320 0.072406
6.898526 -0.123138 1.884466
0.115497 -0.131903 0.205722
-2.988990 -3.100479 2.132425
4.981799 -0.128360 -0.174264
4.955175 -0.153847 0.073908
7.150325 7.104105 1.990270
-2.887738 2.842956 3.965902
-3.060039 2.789420 3.975466
-3.185552 10.126299 3.949026
-3.093906 -3.057308 1.983318
0.050733 7.058464 1.937035
3.031408 -3.126644 3.887515
6.959936 -0.103061 2.099334
-3.038368 -3.089639 1.877986
7.010409 7.073880 2.002496
-3.075072 -2.939269 2.117028
7.104109 -0.043143 2.061653
5.083094 4.930240 0.056645
4.939597 0.050934 -0.045443
-2.910152 2.969567 4.076122
-0.010403 0.007877 0.088457
6.900759 7.015632 1.984277
6.806997 -0.045784 1.954436
-3.027739 -2.996608 1.976278
0.112714 0.130010 -0.041395
0.047795 5.014001 0.028697
-0.153362 5.088807 0.026604
-3.121460 9.921590 4.033975
6.828387 -0.094992 2.014943
-0.042900 4.917641 0.071494
6.999418 7.048481 2.053358
-3.007845 -3.038368 2.025858
5.097072 -0.074491 0.049723
-2.970230 10.012451 3.994345
-0.006390 6.868323 1.864861
-0.067538 5.159228 -0.045492
6.915707 0.001314 1.984463
5.081915 4.920043 -0.044304
6.985037 6.992697 3.900521
5.089825 5.045231 -0.080385
3.035485 -3.052985 4.015054
6.963859 -0.087435 1.908887
-0.170895 5.127515 0.058107
-0.075180 0.075864 0.128608
4.968109 5.040274 0.045090
7.010338 -0.045590 1.942506
0.027346 7.083817 1.896299
4.917500 -0.078992 -0.014501
6.873626 6.922011 4.044746
5.051722 0.007555 -0.064064
4.907102 -0.034695 0.004803
-2.829177 9.973275 4.168029
-3.026944 -2.784442 2.001992
-2.980290 3.225551 4.001933
6.967780 -0.018412 2.022281
-0.051790 0.050429 0.013450
7.127555 6.969808 2.037649
5.094763 -0.066961 0.048264
7.019038 7.003233 2.038942
-3.007145 3.160983 4.153476
6.959758 0.070228 2.168171
-3.009261 -2.902191 2.169243
-0.027329 7.002998 1.989042
6.947991 6.868250 3.966215
0.031940 5.115671 -0.010214
-0.046494 -0.064928 0.154296
0.073472 5.006908 0.133382
7.145015 7.201247 4.033039
-0.014222 -0.040863 -0.102840
-0.014577 0.039075 -0.043488
0.050333 -0.065882 -0.108476
2.824091 -3.070970 3.803111
0.057926 5.007293 0.110696
7.013172 -0.137035 2.000390
0.061961 -0.061004 -0.092919
6.910602 6.936305 4.141527
-0.343537 0.003874 0.094015
6.786523 6.996798 4.168317
0.129179 0.013509 0.070336
6.917287 -0.036174 2.030260
0.032872 7.080632 1.846559
-3.062021 -2.931487 1.984975
-0.018784 4.909717 -0.042306
-3.116083 -3.052021 2.133256
6.925939 -0.022643 2.044537
-2.841815 3.063461 3.938339
0.048961 7.063041 2.055927
6.876557 6.903909 2.050433
6.920148 6.936155 3.948249
-0.009515 6.840547 2.027784
7.075614 0.002763 1.989470
6.951562 7.007023 2.019698
3.124117 -2.809883 3.998711
2.922297 -2.951669 3.979772
-0.056959 -0.072197 0.039617
-9.474195 -7.995985 0.113326
2.457384 9.312924 0.109393
-2.912911 9.849344 4.010850
7.082838 6.909186 2.039143
5.129308 5.022523 -0.004254
7.029684 0.141338 1.906641
-0.016161 6.837824 2.065834
5.023946 5.019668 0.184011
-2.984216 -3.067923 2.169240
-0.156716 -0.003473 -0.010098
0.103607 -0.116109 0.029921
-3.038788 3.116194 3.924969
-3.063860 3.235284 4.019358
6.925022 7.010938 1.944568
4.921969 -0.093426 -0.149690
6.972816 6.887836 4.094990
-2.944904 -3.016171 1.934278
-0.139550 4.990995 -0.089748
2.860148 -2.998072 3.987255
6.957939 6.956039 1.933357
0.050370 5.103622 -0.057044
7.034165 7.063281 1.991325
4.884022 4.992118 -0.094285
-0.052141 -0.058671 -0.003589
-2.938617 -2.999937 1.917775
-0.040334 -0.055686 0.023861
7.066846 6.932898 4.041456
7.131593 7.014000 2.004644
-2.969896 -3.103131 1.893653
0.043887 5.029704 0.017449
0.036075 6.971606 1.977158
0.070188 -0.221644 -0.035124
-0.210088 4.972184 -0.108145
0.165424 -0.053047 0.058044
6.912067 7.042481 1.955557
4.933978 0.100411 -0.138674
-2.988479 -2.949331 1.965489
6.873678 6.949352 1.948192
5.035694 0.059111 -0.027707
7.119863 6.904907 4.016320
3.083916 -3.035892 3.959430
4.924188 0.199161 -0.003933
-2.967327 9.848691 4.077867
-0.053045 0.036155 0.107054
-3.132818 3.184266 3.974401
-3.135141 2.996547 4.124665
6.824384 6.943578 4.184222
6.914789 7.065852 2.039219
-3.030958 9.925494 4.144130
-0.046939 5.154455 0.121298
0.114104 4.971967 -0.034016
0.042978 5.042385 -0.111915
-2.937440 10.059302 4.036408
5.008794 4.857451 0.058130
-2.893192 10.056048 4.168451
4.922262 -0.032271 0.073533
0.108310 7.112664 1.960995
-3.105381 9.922648 4.143672
0.035555 -0.149946 0.162834
5.073822 -0.038571 -0.069918
6.992619 -0.054064 2.186343
2.922268 -2.961915 4.037622
-3.094376 -3.007695 1.889874
5.141198 0.007812 -0.000477
-0.082540 7.050893 1.995152
0.039520 -0.119398 -0.012163
-0.041247 -0.038135 -0.013128
-3.054970 -3.073716 1.805087
-2.975869 -2.964569 1.946350
6.966515 -0.175510 2.053914
4.943220 4.919237 -0.128157
-2.861692 9.995577 3.856451
-2.996547 -2.917439 2.102493
-2.961366 10.100653 3.968535
6.854729 -0.058849 2.069257
6.910555 7.039904 3.987379
-2.999367 9.874571 4.022932
7.071050 7.024908 3.936047
6.901708 7.025561 3.955053
-3.066953 -2.973147 1.985695
6.982819 0.032363 1.967358
0.267203 4.957040 0.049563
6.996079 -0.030063 2.058348
6.966214 -0.011904 1.873912
-2.923933 10.089735 4.077765
3.293467 -3.021164 4.074043
5.028800 0.023493 0.109854
-2.969340 9.995014 4.134113
7.002756 -0.105549 1.802539
0.022296 0.053744 -0.057003
4.944860 4.920156 0.000374
6.852610 -0.095370 1.988200
5.037118 4.994977 -0.171650
-2.938109 -3.005678 2.037897
-3.080500 2.912385 4.037653
2.860441 -2.838542 4.016022
-0.024866 4.860178 -0.044507
0.002592 0.013201 0.045285
4.925653 5.083528 -0.006596
4.997071 -0.109987 0.029040
3.087823 -2.993073 3.950862
5.037377 4.936030 0.202192
-2.930957 -2.952131 1.863744
-0.043635 0.235754 -0.131569
-2.965492 2.849079 3.906849
2.985540 -2.861633 3.979382
-2.913169 2.980372 3.958730
-3.128820 10.025573 3.940412
4.941016 -0.001579 -0.035876
-3.204021 2.863661 4.039315
7.034967 6.927605 2.135081
-0.070527 7.116222 1.925692
0.085601 0.134926 0.037816
-0.117373 6.870901 2.165215
0.114726 7.104236 1.950036
2.860465 -3.050503 4.202433
7.000092 -0.012928 1.960340
4.903372 0.101566 -0.099369
5.113483 5.017901 0.003169
2.930620 -2.874227 4.158064
-2.896236 9.903464 4.020273
-3.149919 10.048776 4.073056
5.015212 -0.156442 -0.032275
0.012174 4.863312 0.066543
4.775669 4.927158 0.068604
6.940427 6.987870 1.971064
0.006593 7.028608 2.168716
-2.852956 -2.865707 2.031073
3.086564 -3.098218 4.017004
5.046197 -0.026392 -0.034483
7.047718 6.908482 1.967953
4.885292 4.984326 0.077653
7.045004 0.047831 2.182641
0.009835 4.834314 0.038693
-0.122430 5.042626 -0.007850
4.950723 0.008139 -0.031108
-3.027735 -2.974847 2.023263
5.129748 0.035868 0.089315
4.909096 0.123424 -0.043656
-0.095796 5.005112 0.053147
-2.921862 2.929674 3.938291
-2.933130 10.041016 3.978817
-3.094451 2.944488 3.969911
7.029286 0.099336 1.957373
6.908055 6.952092 1.998969
5.098572 5.088557 0.082573
-2.967353 9.911595 3.924349
7.028411 0.007575 2.017400
4.958316 5.068074 0.006612
7.182790 7.014208 2.101541
6.943361 6.883487 4.070162
-0.061802 4.984645 0.025187
5.000343 5.097380 0.041625
2.849414 -2.919029 4.003455
7.062017 7.034063 2.037100
6.921124 0.066178 2.160687
-2.993234 3.089739 4.253526
-0.053880 7.075462 2.182722
-0.049153 5.047122 0.059169
7.150882 7.036464 1.874403
2.782607 -3.137877 3.973663
5.098009 5.150774 -0.026688
4.951188 0.003234 -0.049991
4.921708 5.022065 0.038316
7.045533 7.038192 4.008505
-2.858333 -3.069230 2.015161
3.080595 -3.006514 4.143717
-0.083261 5.053773 0.075176
3.060202 -2.919458 4.132209
6.984028 7.082135 1.941057
-0.086432 7.084192 2.062731
7.021358 7.051675 1.860897
0.130621 -0.068443 -0.037334
0.116810 6.920987 1.896432
6.727428 -4.568862 -0.032002
0.037592 5.074891 0.058273
-2.953982 10.049555 3.971771
0.005298 0.232737 0.104637
4.938522 4.936912 -0.032580
-3.129207 -2.933894 1.972934
4.908945 -0.033809 0.098058
0.098058 -0.090644 -0.207844
-3.086654 2.914500 3.866472
-3.078102 -3.130232 1.990802
0.014696 4.977078 -0.020133
-3.037998 2.964870 3.957348
6.966869 7.188707 2.004650
6.954519 -0.107058 1.938056
7.030464 7.167228 4.056441
4.936342 4.927380 -0.122789
-3.043137 10.105739 3.967981
-0.036682 5.045840 -0.002521
-0.104557 7.023244 2.070540
-0.183097 5.108177 0.005224
-0.095889 -0.227959 -0.077267
5.061915 4.762081 -0.084122
7.062112 0.019768 1.981493
-3.029992 9.835096 3.999400
0.218810 0.017115 0.136512
5.039094 -0.072284 0.023987
-2.940547 2.943002 3.955154
-0.027729 6.919740 1.875411
6.932613 7.124173 4.061767
0.086507 7.079291 1.963021
-0.045084 5.105342 -0.100123
7.069773 6.879910 4.129252
7.011504 7.023954 1.966542
-3.006987 9.987277 3.875294
6.997010 7.095053 4.076828
-3.101214 -2.929570 1.868939
-0.084559 6.993629 2.029439
