-0.181929 2.960085 -0.075726
2.993024 -0.126477 -0.012526
0.038089 3.217703 -0.099235
-9.457959 2.854993 0.036617
3.000276 0.226601 -0.186230
-0.145303 3.086622 0.063378
3.020249 -0.210503 0.200247
3.099422 0.048740 0.333027
2.884303 0.064341 -0.231228
-0.047456 0.031338 0.098875
0.006249 -0.062598 -0.149782
0.011733 -0.148955 0.026393
-0.099790 0.114273 -0.068020
0.077747 3.011646 -0.113252
0.034382 0.258335 0.029244
0.041986 0.077994 0.057419
0.014729 3.002965 0.170963
-1.913667 -6.699105 0.064618
0.211442 3.094994 -0.020053
2.839775 -0.043503 0.124022
2.966672 0.044988 0.152201
0.104809 -0.028876 0.045192
0.078796 0.013261 -0.088599
0.083979 0.152889 0.073113
-0.173879 3.096988 -0.156363
-0.017291 -0.020748 -0.013358
-0.285105 0.085316 0.066702
-4.954569 -8.361875 0.061799
-0.070143 3.124431 0.073373
-0.082163 3.057822 0.087346
0.029786 0.093879 -0.133587
0.206985 -0.126612 -0.051337
0.014449 2.855060 -0.067240
-0.098315 -0.131865 0.092217
2.983300 0.174291 -0.100711
-0.068734 3.087005 0.046055
3.103403 -0.071295 0.066992
-0.120264 -0.010349 -0.035268
2.977811 0.231617 0.150660
-0.076401 2.905876 0.147713
3.161360 0.025335 -0.114117
0.158118 2.880827 -0.091779
0.171161 -0.011283 -0.170755
0.079712 -0.146289 0.101683
-0.174425 -0.037473 0.058844
0.013730 0.098236 0.076610
-0.075238 -0.086085 -0.056396
0.143530 3.098685 0.000252
0.136182 3.027368 -0.037799
0.082326 2.929483 0.041242
0.209487 -0.201710 0.118874
3.011871 0.051938 0.119573
-0.063849 0.114347 -0.173241
3.022973 -0.060801 0.087109
0.023451 -0.023004 0.242432
2.809363 -0.007111 -0.010320
0.002907 2.814238 -0.045774
-0.254524 3.043292 0.020869
-0.013993 2.896827 -0.112814
3.069334 0.129037 -0.025701
2.797695 0.032919 0.037005
2.955785 0.035051 -0.049085
-0.009535 3.008911 -0.119827
-5.766794 -3.463084 0.003442
2.923359 0.199938 0.056737
9.998157 -3.000793 0.007564
-0.068128 0.049891 0.143219
-0.065991 -0.075286 -0.000277
-0.055823 3.164819 -0.170794
0.039878 -0.032080 -0.026035
-0.099592 2.955252 0.114521
0.008385 3.025335 0.004415
2.980390 -0.148303 0.045295
-0.205745 3.098998 0.078385
3.007130 0.100128 -0.039900
-0.091051 3.214402 -0.019158
-0.084035 0.136006 0.010548
-0.007043 2.989487 0.001247
0.174097 2.910305 0.003170
0.074396 -0.073128 -0.067416
-2.119595 1.287840 -0.008123
0.084238 -0.015311 -0.179682
3.029254 0.316494 -0.086973
3.003826 -0.050763 -0.059145
3.139817 0.212655 0.056169
3.000138 0.046576 0.039053
3.015633 0.024989 -0.036227
-0.043065 0.191167 0.013814
0.070962 0.184026 0.085486
0.135928 2.904858 -0.047585
-0.004337 3.001174 0.233062
0.086836 0.069694 0.278569
-0.142970 3.067399 -0.075645
3.002882 5.624661 -0.048487
-0.110866 2.922224 0.029579
-0.156392 -0.014657 0.038777
-0.073323 0.038447 -0.188280
2.996766 0.062035 0.030759
0.073969 2.986083 0.091662
2.850470 -0.054651 0.047249
0.025278 3.024240 -0.082764
-0.139622 3.073314 -0.132235
3.130120 0.190315 0.180317
2.948714 -0.172657 0.029942
0.170799 0.097965 0.082666
-0.072827 -0.109897 0.105121
-0.121313 0.108406 0.045726
-0.011824 2.957904 -0.125500
-0.046636 3.015546 0.083022
3.046566 -0.195694 -0.003505
-0.005592 3.188412 0.273520
2.796085 -0.115832 0.077262
-0.009042 2.821387 -0.030059
3.060757 -0.099499 0.051822
-8.994307 -2.417923 0.041903
3.006118 0.184468 0.094347
2.930931 0.006248 -0.028257
2.809727 0.055286 -0.040741
3.004692 0.050320 0.058018
-0.061952 -0.135414 -0.018124
2.925560 -0.067439 0.152734
3.190159 -0.000857 0.224094
3.134926 -0.013637 -0.066084
0.004024 0.030388 -0.037871
-0.026790 3.011427 -0.093208
-0.207746 3.058292 -0.176500
3.034522 -0.076967 -0.122424
-0.017577 3.055133 -0.022135
3.099299 0.079080 -0.019072
0.035216 2.912263 0.013355
-0.014327 3.104353 -0.063420
0.034434 2.944869 -0.092211
2.794446 0.076948 -0.191629
0.013906 0.027876 0.139627
2.860052 -0.039985 0.042834
0.089894 3.167963 -0.066058
0.059919 -0.030014 0.280291
0.161152 3.179853 -0.236594
3.200990 0.064397 -0.189115
-0.072754 2.919598 0.083418
3.078318 -0.134845 -0.225556
0.068190 -0.181742 -0.314393
0.130169 0.107203 0.032843
3.030930 -0.124021 -0.084324
-0.008431 0.089916 -0.086816
3.048809 -0.057754 0.040035
0.170622 0.060683 0.100298
0.173772 -0.005298 -0.134069
2.886062 0.031196 0.041874
2.928616 0.037180 0.171687
-0.309788 2.757500 -0.165812
-0.228193 3.125182 -0.159833
0.004999 -0.012759 0.063813
0.128283 2.895797 -0.027295
-0.035239 -0.220954 -0.129897
2.952179 -0.115194 -0.077778
-0.145154 0.106224 0.000382
-0.652197 -7.447444 -0.008408
5.040196 6.638486 -0.048696
-0.016348 3.021691 0.183382
0.274012 0.033701 0.163883
2.947942 -0.058481 -0.216574
3.069528 -0.030625 -0.010020
-0.021985 3.099550 0.080686
2.970404 0.011197 0.148277
0.135657 3.269949 -0.038276
-0.002216 0.031364 0.020156
-0.088888 2.881861 0.103896
0.147233 -0.003589 0.234372
2.995479 -0.074528 0.052295
0.163414 -0.053538 -0.043710
-0.093281 3.127030 -0.160136
-0.121759 0.029561 0.157330
0.054942 0.062038 0.058999
3.101506 -0.071267 0.038089
