3.029459 0.062873 0.109234
1.543570 -0.172894 1.377765
-0.168553 3.002078 -0.074166
-0.043296 2.927733 0.003204
1.013773 -8.780419 0.049472
3.066199 3.010083 0.055254
3.069381 3.134615 -0.073574
-0.040050 2.907464 0.037826
2.907934 3.087261 0.012933
3.122694 3.054352 0.096284
1.541376 0.070958 1.527498
1.711289 -0.126849 1.384414
-0.014292 0.020545 -0.087277
3.082635 2.950659 -0.110238
0.192346 2.818723 -0.089016
-0.141617 -0.131917 -0.079663
3.084515 2.894900 -0.068780
2.880058 2.884959 0.012186
-0.175398 3.134386 -0.004157
1.641792 -0.399043 1.554347
0.111989 2.943405 0.122026
1.435745 -0.094023 1.275075
2.927581 -0.021057 0.029991
3.084178 2.950641 0.060233
1.497505 0.073188 1.414774
2.849120 3.050358 0.028530
-0.029400 0.053762 -0.107585
2.978285 -0.005819 -0.040131
-0.015393 2.796028 -0.005455
2.940705 0.086734 -0.066516
0.110005 0.089908 0.033651
-0.097272 -0.008282 0.075242
0.206222 0.237234 0.004227
-2.817758 0.890356 -0.005805
0.015676 3.054298 0.046462
3.005770 2.917082 -0.019317
0.122831 3.234413 -0.061519
5.336843 9.992115 0.022662
3.114038 2.993329 -0.096517
-0.119254 -0.113444 -0.018135
2.947274 -0.042527 0.041618
-0.044280 -0.141122 0.158509
-0.290848 0.021657 0.079732
-0.023319 0.154063 0.070638
-9.146074 -0.780102 -0.039413
0.235028 3.183322 -0.142336
3.100621 3.089017 0.031173
-0.143839 -0.044616 -0.083987
-9.986330 8.357924 0.007939
-0.067928 3.209999 -0.121601
1.466155 -0.189102 1.287414
3.073711 0.044356 0.159307
3.000640 2.969297 -0.070762
-0.027558 3.208091 -0.061011
3.041130 -0.040632 0.101860
0.050697 3.318368 -0.029211
-0.020813 0.026093 -0.046236
-0.069446 -0.047149 0.027930
-0.040230 3.075667 0.069485
3.102344 0.020851 0.029028
3.052909 3.041840 0.100817
-0.078448 -0.260521 -0.051145
0.225231 0.089007 -0.011105
1.682856 -0.407648 1.429456
-0.076301 0.093813 0.022619
3.054410 3.067199 -0.065419
6.043362 5.896925 0.087067
3.126917 0.064709 -0.117413
1.717895 -0.002006 1.493300
3.114490 0.058503 0.072025
0.042620 2.796795 -0.169473
2.912916 3.008003 0.006334
2.915900 -0.018251 0.040515
2.989663 2.935817 -0.017321
0.080745 -0.134674 0.450247
2.796666 -0.055175 0.093807
-0.034806 0.209132 -0.240941
2.866893 3.009529 -0.038027
0.291353 2.784369 0.023196
2.916669 -0.061331 0.072426
-0.109823 -0.114835 -0.190575
0.012360 3.106684 0.149650
0.074315 -0.014542 -0.023254
0.123657 0.031634 -0.039987
2.966194 2.862326 -0.005668
0.153202 -0.077834 -0.182372
0.051863 0.088867 -0.001020
2.979252 0.041773 -0.061897
0.076419 2.853469 0.027163
2.912420 0.087274 -0.064522
-0.089586 -0.146747 -0.020432
3.058808 0.104060 0.090072
0.127354 -0.050249 -0.017116
2.875297 0.059411 0.006151
-0.117491 3.079398 0.147948
1.426854 -0.051827 1.294103
0.094710 3.049729 0.180788
3.024467 3.009462 0.137575
2.975743 2.954261 0.309831
0.083828 0.102242 -0.006412
0.090952 -0.091882 -0.130841
3.088086 0.021292 0.005421
-0.261988 -0.083707 -0.171894
2.984932 3.130151 0.113595
-0.082104 -0.082462 0.025906
1.373768 0.188946 1.565548
-0.036541 2.999982 0.070382
3.028303 0.016728 0.076216
1.484791 0.274148 1.554250
1.548158 0.051330 1.513120
2.962730 0.007989 0.053815
1.773983 -0.339720 1.471161
3.085332 0.106895 0.005203
3.136040 3.062618 0.213098
-0.069959 -0.172495 0.132313
3.101896 0.105727 -0.178467
3.163837 2.812147 0.036459
2.865028 3.127239 -0.000080
2.922945 3.058313 -0.107183
1.522422 0.272758 1.381347
1.447346 0.002639 1.736519
3.063846 -0.067958 0.080116
0.156153 0.049703 -0.259823
3.083998 -0.149779 0.021810
-0.163938 0.053159 -0.109178
-0.114584 2.977579 0.055628
1.723904 0.230957 1.513492
-0.013030 2.990655 0.024249
0.069770 0.171952 -0.078770
0.157507 2.897198 -0.016598
0.055109 2.949693 0.359793
-6.543856 -5.705678 0.015587
1.670151 0.029780 1.128357
0.055123 0.246121 0.039021
3.012408 0.002819 0.055605
-0.112275 -0.176539 0.345481
-0.000648 3.170383 -0.058919
4.011216 8.951175 -0.006154
3.000120 0.049075 -0.010569
1.599822 -0.022553 1.457835
1.384569 -0.274114 1.559037
1.292187 0.089737 1.625783
1.352672 0.259141 1.490157
0.117032 -0.194824 -0.085660
0.161867 -0.068779 0.280897
-4.404480 -7.255280 0.032449
-0.086498 2.991015 0.060517
-0.201849 2.919177 0.090594
3.128690 3.177231 0.158379
0.167094 2.935762 0.023453
1.432345 -0.273424 1.516226
2.819945 3.025246 -0.036098
2.912954 0.071594 -0.185344
1.641754 -0.051437 1.395530
2.860127 0.021956 -0.161532
0.054864 2.981487 0.103385
3.046437 3.007224 -0.220679
0.108783 0.110053 0.185582
-0.190207 -0.076341 0.071680
-0.330565 2.923737 -0.099449
3.013594 -0.081386 0.160305
-0.087225 3.036026 0.006491
-0.166548 2.851695 0.085723
1.607492 -0.024582 1.490996
1.463198 0.310692 1.504916
2.948924 0.002827 0.066038
1.443937 0.127094 1.458929
2.939402 -0.098109 -0.074644
2.975189 0.128850 0.070909
-0.176805 3.061469 0.136404
-0.024851 3.095657 -0.024722
2.956733 3.079243 0.079226
1.430408 0.197538 1.304367
0.093875 3.026405 -0.189893
0.132200 3.157602 -0.020012
2.862129 3.129731 -0.145812
-0.248127 3.007963 -0.076591
3.019145 0.107848 -0.013618
1.545117 -0.257941 1.510767
1.563152 0.048375 1.454644
1.535765 0.003076 1.299836
1.420515 0.218580 1.521780
-0.050015 3.003354 0.153323
1.269791 0.029515 1.457420
-0.130000 -0.018562 -0.222781
1.785294 0.168334 1.696167
2.951737 -0.112331 -0.063783
3.001521 0.107304 -0.112927
3.170674 0.089908 0.138155
0.032676 -0.204403 -0.130044
2.967128 -0.065904 -0.076917
3.062563 0.074149 -0.135356
2.952780 0.127388 -0.136806
1.212339 0.256734 1.467539
2.909724 3.087490 0.155042
-0.147176 0.057393 -0.005769
-5.611768 6.930102 0.057706
0.021082 3.041199 0.059026
1.637230 0.082575 1.303239
2.939221 0.115504 -0.019245
3.064197 -0.108609 -0.017462
0.201162 3.034658 -0.035480
-0.009527 -0.120553 0.016014
3.068502 -0.017523 0.023632
0.109582 3.138128 0.018357
1.609897 0.064076 1.560105
3.126553 3.005261 0.122443
-3.818939 -0.191272 0.030690
-0.017356 2.976719 0.030848
1.493787 0.058934 1.684016
-0.058001 3.045671 -0.116467
0.014390 0.069564 -0.122597
0.108506 -0.090240 0.131775
2.882897 -0.097394 0.083727
0.105842 0.018040 0.034995
2.973898 0.158368 0.071187
1.909353 -0.229185 1.552426
2.919581 0.021903 0.064195
1.652201 -0.121794 1.343624
-0.262375 2.914106 -0.233951
3.098577 3.103653 -0.022680
0.139320 -0.016873 0.137939
0.354176 3.150000 0.041604
3.116206 0.048637 -0.065922
2.966184 3.088202 -0.006605
3.046700 3.032304 0.043628
2.996908 0.089129 0.165601
3.096516 2.971866 0.003616
0.142610 -0.222165 -0.010810
-0.054444 -0.128232 0.039540
3.113325 2.765295 -0.073078
2.858264 -0.140887 -0.039886
-0.068533 0.100277 -0.004608
3.064160 3.156741 -0.020565
0.009863 3.099991 0.014382
1.430820 -0.106633 1.322068
2.973812 -0.183013 0.029175
-0.107186 -0.026504 -0.142341
-0.025197 0.143578 0.079864
-0.037427 -0.059328 0.021836
1.387753 0.153974 1.506174
0.049340 2.946098 0.214043
0.085357 0.022261 0.080691
3.100586 0.119727 -0.009731
3.095660 3.185376 0.109159
0.003410 2.925529 0.158284
2.981472 -0.001700 -0.069584
1.258376 -0.214073 1.557194
3.128910 0.079321 0.049564
-0.120163 2.939733 -0.022681
0.081856 0.257643 0.166534
2.888645 -0.004948 -0.166946
2.999069 0.241180 -0.030426
3.053319 -0.135125 -0.049364
0.038912 0.049963 -0.000305
3.203529 3.102655 0.103843
0.005344 -0.048454 0.209381
1.503512 -0.027295 1.606600
-0.052174 2.894971 0.219928
3.055806 3.130654 -0.050100
0.022545 -0.094272 -0.039285
1.491956 0.059868 1.376486
1.501591 -0.080170 1.583204
1.420807 0.011623 1.533748
-6.640216 1.477684 0.021822
2.990119 0.029680 -0.155652
0.264832 -0.012894 -0.058239
2.859672 0.107939 0.236925
9.830626 0.588646 -0.017096
0.023453 0.042651 0.114868
2.948224 -0.000003 0.143173
0.283016 2.880910 0.219506
-0.182191 2.858423 -0.206466
2.875065 3.217558 0.234160
-0.243562 0.205140 0.060986
0.146877 -0.105017 0.070812
3.132377 -0.130413 -0.043871
1.439408 0.256108 1.438977
-0.111581 2.773561 -0.053147
1.280756 -0.169047 2.046941
2.973888 0.075768 0.111655
-0.039137 -0.057419 -0.310799
2.980604 0.126763 -0.009310
2.885611 3.061001 -0.144089
3.017406 -0.035061 0.141245
-0.168027 0.005079 -0.080803
-0.146423 -0.087004 -0.052422
3.018847 0.111533 0.038780
-0.021525 -0.021236 -0.121424
3.071834 3.071419 -0.004388
0.090135 2.908213 -0.048737
-0.071386 2.966254 -0.044302
2.953650 2.949178 0.098236
2.926174 0.034789 -0.050160
2.873442 0.123915 0.057585
1.477434 -0.093554 1.544280
7.632527 -0.155466 0.137658
1.236905 0.063963 1.514854
-0.024912 2.896028 -0.160986
2.945131 3.003576 -0.043228
-6.477993 1.850390 -0.081802
1.569586 -0.004476 1.620657
2.944103 -0.105113 -0.220002
-0.152851 2.892165 0.187971
-0.039558 -0.198657 0.022564
3.084333 2.882660 -0.026485
1.354908 0.026014 1.703820
2.906110 3.033284 0.018648
-0.051837 -0.055677 0.191146
2.934413 0.073153 -0.124329
1.272130 1.262178 0.056278
3.076707 3.018257 -0.045956
-0.143493 3.140884 -0.230251
2.896666 -0.064554 -0.068360
1.446464 -0.145949 1.433747
2.772822 0.003535 -0.178416
1.595205 0.061441 1.388981
2.966196 -0.112830 0.090600
-0.031403 0.050377 0.064310
0.152647 3.092539 0.026320
1.709454 -0.028943 1.614720
-0.155731 -0.014856 0.060031
3.092660 0.084886 -0.109019
2.978961 0.100341 -0.071154
1.483869 -0.119250 1.526581
2.906380 3.005534 0.099147
2.963189 3.110611 0.098476
3.103628 -0.021681 -0.036332
-0.104413 -0.251560 0.039575
-0.031303 0.112022 0.090110
2.920031 0.044073 -0.109510
-0.102487 2.940993 0.034237
1.347224 -0.102331 1.937283
0.008001 3.025268 0.018577
3.067429 3.035389 0.003001
3.022630 3.048546 -0.011791
1.801796 0.107731 1.668248
2.984195 3.233117 -0.091384
-0.006786 2.899031 -0.116338
-0.110044 3.155204 0.009047
0.134052 2.951960 0.081705
-0.131618 -0.017848 0.041431
0.030401 2.895106 0.186627
1.476711 -0.050356 1.423077
2.967616 2.972217 -0.103776
-0.119783 -0.166880 -0.015214
1.467275 0.279698 1.396788
0.029205 -0.141317 0.284949
3.003257 0.067560 0.036714
1.465883 0.042191 1.397304
2.839097 3.040136 -0.025551
-0.065895 -0.073249 -0.039030
1.566255 0.045379 1.525177
2.946246 3.074397 -0.007552
-0.190982 2.870906 0.128051
0.154927 3.098718 -0.094588
2.882271 0.122233 -0.109782
2.873728 2.799888 0.026054
3.230155 2.980949 -0.116326
2.985076 0.026158 -0.175663
1.405057 -0.130712 1.463639
-0.048153 -0.101612 0.029283
3.032326 -0.114766 0.048438
2.971599 2.868529 -0.123758
-0.099196 2.877838 -0.119207
3.018129 0.224728 0.060578
3.040539 2.908682 0.097225
2.959447 3.131981 0.046204
2.968353 -0.223496 0.092620
0.117942 -0.041648 -0.003376
3.052721 3.027676 0.011351
3.089425 -0.090422 0.154590
0.516281 2.615088 0.098722
3.071666 -0.130531 -0.055992
2.921694 2.981850 -0.024016
-0.091179 3.064719 0.134180
-0.009924 3.090039 0.081537
2.958652 2.904948 0.061997
-0.116703 2.996176 -0.042864
-0.268746 0.068974 -0.150419
-0.083161 3.169319 -0.161943
2.383531 -5.084304 -0.014408
-0.009283 -0.089236 0.094394
-0.132709 2.933289 -0.047390
2.885231 0.169989 0.027009
-5.619596 7.915296 0.003099
1.575660 -0.010612 1.562031
0.364286 -0.197507 -0.002601
2.839718 3.070668 -0.180894
-0.163178 0.021731 -0.083031
-0.113444 2.910556 -0.077807
3.066474 3.018208 0.141298
1.564142 -0.207049 1.620252
3.040792 0.017930 -0.035566
2.960321 3.148902 -0.130767
3.077547 3.139529 -0.222455
-0.247012 -0.100335 0.007760
1.336927 -0.106353 1.229018
3.140033 2.945162 -0.036670
0.002611 3.240271 0.057440
4.338753 8.375616 0.025221
0.205405 0.143768 0.086842
-0.090134 2.678756 0.008841
2.955532 3.088051 -0.025749
-0.002330 2.836293 -0.130798
-0.044533 3.001729 0.110607
3.147352 3.087121 -0.051366
1.481614 -0.106444 1.455051
6.885682 -3.528224 0.065830
-0.067402 0.174050 -0.164836
3.015353 3.112581 0.074524
0.117246 3.040135 -0.011251
-0.012016 0.049956 -0.235800
1.463784 0.183062 1.395500
3.119204 3.071200 0.046993
1.724627 0.235593 1.564382
2.961566 2.937146 -0.132910
3.046273 0.113637 0.135407
3.016919 0.173403 -0.080501
1.514751 0.137553 1.663913
-9.410354 3.664258 -0.045127
1.428591 0.109478 1.450755
3.085793 -0.046727 0.012905
1.717970 0.092495 1.446758
1.608338 0.303445 1.507404
-0.134159 0.068210 -0.157362
0.081922 2.869188 0.021778
3.027228 3.063011 0.057598
1.644298 -0.154714 1.603008
3.170472 0.129680 -0.087686
2.787973 -0.000415 0.018093
3.006571 -0.079547 0.046761
2.899408 3.234536 -0.142691
2.932623 0.040155 0.052748
-0.033732 -0.070086 -0.224201
0.148261 0.012999 -0.172191
-0.057030 2.987184 -0.027562
3.052500 -0.047996 0.076143
3.189381 2.836603 0.136639
3.180142 -0.038762 0.017277
-0.209957 0.021392 -0.040941
0.211078 0.019766 0.008041
-0.113994 -0.207766 -0.088727
2.907368 3.011593 0.101248
2.973366 2.959971 0.037245
-0.157643 3.105860 0.030964
1.501989 0.097370 1.473712
-0.126487 -0.084060 -0.172311
-0.163359 -0.148021 -0.237122
2.994259 0.077440 -0.316260
2.979585 0.001347 -0.065114
-0.190430 2.965107 0.001709
-0.089484 3.023627 0.076491
1.626964 0.076969 1.445501
2.950188 2.944676 -0.086049
3.022040 -0.089278 -0.015050
-0.175257 3.110639 0.213939
-0.306410 8.253540 -0.049575
1.390231 -0.258345 1.485900
-0.087816 0.009300 -0.141187
3.032793 2.994663 -0.176285
2.849604 0.033992 -0.123595
0.002728 -0.062389 0.088226
2.903594 2.965470 0.092199
2.902162 3.021736 0.012429
1.495562 -0.075527 1.439019
2.960546 3.148495 0.074829
0.155913 3.043501 -0.028404
2.878753 0.063128 0.053022
2.991992 2.829772 -0.046647
3.114706 0.035224 -0.140008
0.043904 3.152555 0.120629
3.114180 2.999693 0.006336
1.424877 -0.044242 1.586104
2.836121 3.100578 0.018242
-0.122730 0.069096 -0.186433
2.763668 2.883180 -0.003993
3.137288 -4.669460 -0.003738
6.325703 8.345190 0.157458
3.151671 -0.031214 -0.104649
-5.623821 0.528970 0.019546
2.923865 3.224966 0.047181
1.450743 0.134040 1.614836
0.077558 3.047547 -0.123034
3.010068 2.950020 -0.043567
1.558541 0.076412 1.749568
-0.066975 2.978363 -0.061517
2.895789 3.219078 0.026396
2.947419 2.885066 0.106467
0.106712 -0.318390 -0.091343
1.496307 -0.019212 1.496272
1.710437 0.208429 1.494855
1.624710 -0.149188 1.349206
-0.025803 2.690450 0.049845
-0.045332 3.278845 -0.009178
3.111537 -0.075650 0.119723
0.117707 2.994713 0.178489
-0.069934 0.111851 -0.046342
-0.030213 -0.098648 -0.007104
-0.194564 -0.097753 0.183023
3.007397 3.004622 0.097018
0.072885 3.139914 0.057192
3.004089 0.013104 0.052731
0.042077 0.131298 0.002208
2.948240 0.016702 -0.115542
1.410858 0.182630 1.687116
0.088161 0.038600 -0.101421
2.883101 2.990566 0.229700
2.917535 3.146216 0.190521
-0.119230 2.893979 0.008463
0.195227 0.050429 -0.171255
1.469974 -0.073921 1.448116
1.537457 0.133068 1.563465
6.124205 3.952531 0.010256
-0.068785 -0.056087 0.082654
0.086730 2.949536 -0.063441
0.161533 0.112115 0.057899
-0.055666 3.046228 0.051494
3.082742 3.256753 -0.058112
2.843124 0.178884 0.087043
0.070423 0.233300 0.223050
1.240181 0.007732 1.497541
2.921858 2.822366 -0.112396
-0.198874 2.888033 0.084625
2.932926 0.067965 0.067518
0.086521 2.940831 -0.007604
2.975264 2.887263 -0.078674
3.111011 -0.049397 0.217286
1.491592 -0.069225 1.380035
0.223323 -0.046826 0.131713
0.050277 -0.074567 -0.140493
3.027002 3.052547 -0.234612
-0.047292 -0.071248 0.180300
0.047442 3.067332 -0.180187
0.224716 -0.072149 0.148136
1.585058 0.156385 1.618041
3.057259 3.131077 -0.022162
0.186744 -0.038433 -0.126303
2.836317 2.944442 -0.090391
3.041347 2.898779 0.054737
3.136062 -0.106041 -0.223200
0.011606 2.859543 -0.140433
-0.297743 2.938361 0.182099
0.216948 2.911826 -0.076962
1.379455 -0.011864 1.632598
-0.127999 0.138570 0.098621
1.430440 -0.108705 1.479395
2.865474 0.159607 0.066818
-0.057038 -0.310222 -0.090207
3.045186 0.052401 0.081151
0.048925 3.234538 0.133242
2.934845 3.002657 -0.181863
-0.078627 2.872964 -0.063201
-0.029808 -0.139963 -0.033392
-0.007628 -0.146450 -0.003717
3.176852 0.066053 0.177068
2.862653 0.077995 -0.144098
1.339565 -0.243585 1.489973
3.018769 0.005110 0.175136
0.003629 3.080832 -0.163919
0.073170 -0.078218 0.154726
0.141249 0.000431 -0.241534
3.228950 2.844842 -0.054837
3.073554 2.907732 0.144201
0.043466 0.105090 0.006806
0.060593 2.959574 0.081093
0.231839 0.037098 0.112294
2.975239 -0.143585 0.046679
2.903038 3.099179 -0.069160
3.028800 0.321439 -0.016900
3.155661 3.118521 0.006815
2.838260 2.901029 0.063560
-0.018133 3.027875 -0.012318
3.066706 3.053079 0.085260
3.042485 2.914347 0.012845
0.060320 -0.097365 0.156533
3.018858 2.886937 0.012176
3.019400 -0.090238 0.082763
1.472172 -0.136166 1.539376
3.164162 2.861226 -0.032769
0.192898 2.815395 -0.038036
-0.087479 -0.069692 -0.109248
1.481798 0.154063 1.297031
0.145788 -0.137021 0.150468
-0.138015 -0.189552 0.142515
3.042793 3.017746 0.044623
2.851308 -0.111573 -0.084459
3.272774 -0.094100 -0.079013
1.559354 -0.089830 1.729876
2.950400 3.051489 0.073174
0.099779 3.271118 0.109235
2.891508 0.136341 0.059734
-0.111973 -0.037369 0.126088
0.038668 2.941022 0.178697
3.004718 -0.168849 -0.215511
-0.107864 2.913611 0.032721
-0.277893 3.063655 -0.038608
-0.079934 3.010568 -0.270874
2.864791 -0.101384 -0.034935
0.352284 2.865101 -0.037634
3.149640 2.984533 -0.134997
0.028778 0.057045 -0.310325
1.734027 0.076289 1.629975
3.004759 3.055812 0.103645
3.016360 2.861697 -0.037497
0.174305 3.012546 -0.015124
-0.072922 2.998821 0.064826
0.056928 0.076353 -0.107870
2.802136 2.916426 -0.148063
0.174156 -0.024290 -0.023752
2.873182 0.127898 -0.062832
1.438317 0.073029 1.467810
3.169072 -0.112828 -0.066128
0.032110 0.065629 -0.038218
-0.054119 -0.331141 0.212272
3.131790 -0.061524 -0.001759
3.182104 3.019691 -0.083219
1.442055 0.075764 1.415228
1.661638 0.092099 1.409815
-0.123744 -0.192790 -0.179673
-0.069576 2.866573 -0.218965
0.060214 -0.002302 0.014849
-0.114623 2.855428 -0.060398
-0.006239 -0.187461 0.044611
-0.017280 -0.021624 0.203665
2.920562 3.101215 0.069122
2.868032 2.908014 -0.000269
3.062801 3.140366 -0.103845
-0.201051 3.067168 -0.127848
-0.230137 -0.067922 0.004427
-0.015272 0.232766 -0.049730
1.495481 0.282056 1.686615
2.999595 -0.169007 -0.027526
2.944997 -0.116097 0.086561
1.574970 -0.110544 1.482071
2.829742 2.952103 -0.134991
2.857031 3.058520 -0.035456
-0.156393 2.994606 0.062984
2.958987 0.098259 0.044951
2.926375 -0.024019 -0.144216
1.362041 0.062381 1.489941
1.274865 0.191169 1.817903
-0.038159 0.005729 -0.035390
3.009351 0.088406 -0.094305
0.059352 2.928328 0.050530
1.758719 0.004021 1.473669
3.028450 0.001527 -0.049136
0.025069 2.752308 0.081131
0.058978 -0.139731 -0.100114
3.114223 3.031422 -0.072344
7.668476 -9.307011 0.037397
1.598375 0.129848 1.550805
-0.075321 3.045042 0.135883
0.044797 -0.080916 0.062233
2.991893 2.885532 -0.063416
0.092115 0.216479 0.012797
3.116538 0.021730 -0.127654
1.240530 -0.037769 1.483439
3.008049 0.044025 0.087345
0.145917 3.191589 0.312654
1.578994 0.260837 1.354563
-0.039594 0.116383 0.185276
2.700702 -0.029020 -0.073658
0.176453 2.976382 -0.237121
-0.049830 -0.049108 0.001915
1.690381 0.204570 1.352989
-0.013104 -0.119503 -0.032768
0.083031 0.104468 -0.002302
3.148651 2.837673 -0.122553
3.115885 -0.036642 -0.070776
2.895029 0.048811 -0.082400
1.419431 -0.065981 1.666935
3.054087 3.003261 0.102651
3.009134 2.957355 0.272117
5.947814 -2.903907 0.051354
-0.054086 3.001591 -0.012128
3.077213 3.005125 -0.120680
-0.114975 2.879057 0.036782
1.507478 0.132852 1.406625
2.845920 2.969484 0.004735
-0.132115 2.988977 0.124990
2.895984 -0.015167 -0.026449
-0.172656 3.111303 0.032983
-0.103488 2.956310 0.091848
0.267600 3.213838 -0.077727
-0.020704 0.098915 -0.378545
1.593021 -0.001373 1.386268
0.099336 -0.094786 -0.173670
2.947750 0.078815 0.154897
-0.089915 2.936498 -0.036764
0.090485 -0.093280 -0.089418
3.036964 -0.005937 -0.117397
3.084427 0.079628 -0.032689
3.126731 -0.105531 0.077988
-0.082771 -0.055352 0.021833
0.091421 2.749901 -0.290688
-0.066971 3.354454 -0.025561
1.487938 -0.130694 1.491873
1.780849 0.118980 1.351460
-0.187161 -0.062539 -0.082043
1.308260 -0.066856 1.296696
2.892996 0.082718 0.084601
0.062771 2.990209 -0.105882
0.055859 2.815354 -0.010585
2.895900 -0.143207 0.053366
-0.081030 -0.096629 -0.000143
-0.225292 3.104415 -0.028717
0.027019 -0.159036 0.078825
2.913130 2.976600 -0.098042
0.042668 0.117698 -0.235161
2.984550 3.198655 -0.140612
-6.403683 -3.622449 -0.000746
2.943931 -0.095080 0.039262
1.667821 -0.158174 1.430200
0.046700 3.157136 -0.073197
1.275312 -0.196450 1.513031
3.078435 0.076985 -0.051669
-0.118907 0.081713 0.175216
2.921001 2.951927 0.078284
0.180479 3.039379 -0.150358
2.992926 3.063727 0.074964
1.459335 0.068722 1.385323
0.151100 0.075895 0.064382
2.860793 -0.127672 0.037612
-0.136426 0.025218 -0.141773
3.125352 0.020892 -0.122616
1.645137 -0.109276 1.455985
-0.019489 2.951715 0.140097
0.096585 3.293838 -0.074769
2.973820 -0.100647 0.015386
1.367992 0.043137 1.565663
1.305954 0.000475 1.422419
3.028130 -0.001004 -0.109164
0.052900 3.062399 -0.080315
1.520576 0.035168 1.337345
1.630172 0.073136 1.278779
2.916956 2.945672 -0.019047
1.517907 0.206524 1.126408
2.905377 -0.116019 -0.059814
0.018670 2.871731 0.051153
1.372153 -0.201174 1.618238
2.837407 3.002667 -0.044229
1.480074 -0.001701 1.374454
-0.012186 2.895539 -0.146430
2.955087 0.032294 -0.016717
-0.129533 -0.025180 -0.043247
0.056780 2.876155 0.110366
2.799594 0.090307 0.048403
-0.054675 3.118617 -0.018724
0.125205 -0.255911 0.068060
1.460740 -0.036526 1.314972
-0.005955 3.087744 0.007029
1.463714 0.041971 1.388095
1.537630 -0.002207 1.364242
0.178447 2.832189 -0.033151
-0.121036 0.015265 0.264642
-0.045446 3.101431 0.195489
2.818409 3.053390 -0.008723
-0.122623 0.008220 0.029527
-0.048622 0.049051 0.039601
